-15.238775786024938,29.958550899968948,46.3353449403111
-23.822792360644915,15.805977089098569,37.842255319803755
-73.13847239678975,-39.323727641292024,-49.054976656764076
-0.6762078565850871,18.828661629952023,2.64057661781721
12.008892478787125,30.46797998727208,-81.11939840942759
0.17467653404787953,-51.09482520975631,43.278649631989026
-23.23902248097862,-59.543758132708625,-14.10686561054473
28.524237584921572,13.3552845283929,-33.439067161415224
-88.2768643615035,-73.9688244226362,-56.88437237650103
15.239264954801165,-14.720019609132446,34.712422032583476
-9.153581719137572,17.02741335137467,-139.15964406742518
-37.8302260121621,-25.53470699288189,73.8607934186632
-31.40746613641289,-20.576443764152685,34.129449397866125
29.105543157161414,55.187289902578854,-163.91581948309113
-33.096145615108355,-29.785518384219266,-135.00850122481938
-10.975842032067629,-30.952393267446585,-2.0363586408436944
-50.02151429493649,-3.5373217008734805,76.31672819221349
-36.48521057452514,19.31506091283717,-49.37093045031082
-120.19838006935859,3.2693457172820537,76.92661569078163
62.3613702737792,-15.95594329944392,-19.39527658129236
-73.10400540435111,-32.3612945741593,-153.80054109752564
-24.890010932541546,-46.223351249150824,17.99918998311106
-24.31299738762562,64.843244558747,4.581954108976767
-60.13495963757519,8.795231406728377,37.356228879371486
-22.227304033011045,25.057924898559847,-96.51843949924726
-4.633014455137051,-15.972121801814449,-5.471458247088606
-80.55993400081053,14.217210234577323,-21.216803798373395
15.159968449043156,-54.11778247951133,66.09425931263489
-3.5335403702727284,-8.776043348276408,-40.92182308834687
22.745765395838937,9.662786750007722,-130.9872300114696
-70.8408984227448,-1.780399673757568,-55.16969156163981
-1.6367763576852106,-44.95132466940979,-86.63651227062769
44.12635280185992,-29.486935128787934,-16.65586965606534
-1.3654097777057643,-85.7920055564527,6.441388486129718
-24.804176249111798,-31.056790321148586,-148.82081649976507
38.010885881365375,-31.593530120727358,-180.59576001254212
-48.78851705588626,6.920524110914229,-158.2662883545525
-15.409226043053815,-37.49733469230502,7.352765846391172
-78.08945309766051,-10.007960305397615,-93.90620185332175
-45.75893786008359,-29.840652111804935,-289.02686816399023
15.212204564805596,-0.8011504184692377,-18.81483717949728
8.217023546440526,32.77343282016332,-115.19475188715863
-43.75852659612545,-24.524276978283613,-88.37395238841859
6.18953896108582,-12.577686090260595,62.81589398978426
2.4898125463374967,10.756878819791563,-147.82954495205254
2.7812860495030556,-29.506030554156716,-51.35011210436289
-12.278484409208342,1.5707013386310322,-131.84114976543128
-28.803720512646287,-29.527952682709063,73.58575100712366
15.782151379071806,-107.17718476230282,-48.737176801313154
-43.85808311282203,18.13426145900973,-185.36540368736186
-45.1360538046932,-31.096663130411493,-57.06629202087517
-65.54033895684013,-51.68803139855924,-97.72002840093467
-25.645917709941408,-39.24747166865141,-122.60383016927989
2.3083281864023455,2.9958889453857225,-175.1745241602456
-4.767451591497052,-22.089385185067353,-89.15562214386469
-68.8427141951512,51.07526460194239,76.11209600987694
57.54852442192559,-30.442597454443018,-46.23736299871423
-78.66438685425751,10.912563088817997,5.042002980585707
-28.276095465162157,-86.268730405599,103.55914600768091
-10.101875111762824,-29.8772044789046,-88.18289075595862
-42.08745883513354,-11.720252968594068,-170.1625782614214
-95.97479939903523,-28.979179163110565,71.94122210052718
-35.37433997699086,-69.1063755937472,-46.53291750297623
-86.9865123795866,39.31657664862556,62.87824411943072
-17.191515727447268,-66.93004478272843,66.11851082717143
-24.662605808611744,-60.34310384370485,-8.270121491079621
-17.112953441793454,-24.31184297407525,-85.3858028058385
-12.273752068002404,-34.66119338472741,-152.5818759327667
19.05133387089493,2.2985224637091193,-78.27695724782484
-34.7567804334428,7.709894409333906,74.26032446298956
0.8232576747404821,67.958406829803,-121.6298162119761
16.696832914130383,-27.735988087609552,-21.41460267794226
58.30799093453881,28.68204724354314,-46.247185202501655
41.396916573631934,30.770607391491886,-64.22527544474735
6.938531077306848,27.042801761724284,46.07870459935221
-41.83887856166626,43.497945504137505,-170.11980888465004
-37.05390122297567,-16.956823045278135,94.42664553443788
-18.365386713004803,5.903333525331714,-56.39564268826298
14.018227866224457,-9.744407832807077,26.77002652092915
41.11903716786177,-57.203269816937045,12.394830975594438
-39.89032051558017,-42.35641940217442,-78.4854733510258
-12.482710222094063,-58.52620103303551,31.091846179414674
-32.59154252707526,-10.810291699355087,-129.79235890126722
-65.76577895882585,-16.967913511193444,-160.58928393913385
-23.118652076048296,-44.2336718075596,-1.62790417591021
-64.98596941370141,64.2393171665525,-50.64573864904638
-30.42606128846998,-14.957418995032793,101.98829339457882
-18.0422665988306,-55.73319019607788,85.81225934127099
5.393182645498172,-8.593794448988996,-48.70649462175092
-90.76388777269717,0.5915491631300505,88.74627383745963
-29.26926505041785,-36.0307383713382,-40.77761035767337
17.836472073620044,-22.145333018379567,-26.039903000728398
-24.101956231489204,-70.78031636614435,4.264985727877345
-74.89963097231116,-10.198291193557147,-4.628214209417685
18.313059482461384,-16.21463925184502,-54.03336597559015
-45.18672789809935,16.229381222885017,-163.66960105099398
39.37062872655831,-16.1294259628651,-75.4152528849966
-10.873752294562747,-3.8918918419193176,-2.450976701023791
-35.83645812620652,-39.929427024112655,-174.75434636411896
24.543313857704867,-1.002408923804051,-107.85027654149773
2.9987488942622846,-24.07863674137495,-7.383249288996396
-70.15587656664327,37.72537749302785,-81.3653279569981
19.412663384579204,-21.542462502066464,-105.93979571966769
-32.76036670660779,-31.47662670644775,-80.08574243443636
-73.71495098384088,28.61343328679282,-204.84803626848404
-20.88283142588873,-64.19957675823713,-70.09293468423856
-4.934066596890702,-72.76615502250672,-76.19157422741912
14.321667348747255,-17.43600108066682,49.92018992557048
-87.39920112411839,38.10288098275822,-83.65466727827467
-6.716705294953131,0.0826059803550585,-36.931972633426476
-30.709504636160183,71.31697175695146,-166.29022930998138
-8.80776277117539,-44.171506581608604,74.05415660407846
14.921637185450358,-53.843605120679385,-119.23745515483137
-27.88181805196263,26.714357770241435,-105.79866627669911
-10.132294768207366,-56.757608883125286,-87.56062135285669
-67.82046302306037,-31.258434672929006,-155.0925742054262
-71.56495441979457,-10.29111697341545,-24.811987824633647
33.97958541152028,-88.37017871871389,-23.004716334344387
-110.29322607358088,18.345654423467074,37.43341888027854
-64.54932763734317,31.76101298574455,37.34434150152299
5.23112547590646,-37.17021521729959,38.63850677284556
-58.199362681050275,-2.1031836009575287,10.570186569319446
-0.5855287503931592,11.094878553804442,117.03684078050645
-92.20402424665762,-43.8522614504136,-35.31812466677728
17.71719201995171,-18.652588412111697,-113.77079762044326
-89.14417366021138,30.120656917598055,8.069620419399833
-26.677097605468923,14.484805674941889,-10.7221354860039
-48.00981618686848,-115.19487255922425,-106.54284234348084
-8.82691221281316,-13.878837653523947,216.95338274797535
-13.650579507435737,-44.44268984106494,-203.14194187834974
-30.69108419249209,3.0107126792363132,8.575620968501035
-1.4260986142898524,36.699966815418186,-105.79758741975175
55.11048030089793,-18.299125808351256,-69.60315602346427
0.5002558218426287,-0.12650684729363348,51.429288413846905
29.88181090378835,-24.401527011010778,-36.88375269949716
-12.236059881703257,-57.874260941533514,-19.118072440043107
-14.6347556627824,31.719644314094644,-49.78173133269387
-0.6554920595719551,19.623439826969204,-107.0889654397012
-39.14653409228798,-137.68118310704406,-155.69855705672876
-36.37892386813012,-5.722073534986807,-5.235138008459749
0.4607972465486263,-41.9387886261421,-86.75081843916493
-25.075175722938262,-37.84934684213255,133.8477919601395
34.69223864828065,-34.143854990059125,-66.71269636184698
-47.99395579017408,-57.96294091960465,48.84036493036581
-50.48679552602184,-10.049443349801045,-13.396480732342823
-62.429255511038605,-21.07105373939579,-100.36746121070637
54.02497250229165,0.3525638491588623,-62.99396245304117
-77.80380330558354,-10.57365346123006,-53.190642870225936
6.577319309875314,30.40670535709853,132.28041619185814
-5.8778730966614585,23.53874036623221,46.938924368635014
-34.60983132528882,31.35687203183305,-112.28320086115927
32.12613913896779,-25.0207699691324,63.69644605767762
26.733011614201885,-52.0271246598113,-147.81513733548914
-48.65967240665538,-107.42413218722497,71.07220747730611
72.36826666822056,-27.190428964309337,-44.690945631863514
-78.12721444096383,-68.62616499191348,18.50408138425678
1.724544049411044,-6.526310432940717,-153.78612879596523
57.6465747783472,-61.27529763837189,78.47867146400407
-10.375545281388451,-12.854209410056878,-177.68392592317235
-59.76619999013333,-61.532323896820955,-80.63434254838225
-28.74703068944748,-63.9323693740523,-41.328586250930805
-62.99373019686689,-15.073635133664116,-122.76799566162636
-30.493896251531922,24.266025165770216,2.9019024454020013
-21.027078233330574,-24.754586739609206,2.5700587650343607
12.065506091870596,38.70698152993597,-107.66072769253724
-94.92241261510573,-26.050810288893363,-23.011452054821376
-21.508560282010073,-3.5517966345998673,128.03937421112695
6.765148600799616,-35.30261818842638,-1.9378540145357235
-21.877872202399693,20.18475969288452,-110.19365910487215
10.56325281527144,-12.736643328436385,101.76677373584195
-30.473860235558305,-66.22027634598074,-115.93338143337807
-54.050970635010714,-27.036737174677565,53.574987736571245
-16.80678891691919,-59.95639216690517,51.28418695097595
-24.40820188651558,-75.30361746187454,5.820384268332532
36.80966155923292,-0.7826676705231179,-68.22608829883129
-12.442476142437869,-29.46991454870414,-26.24310200887366
-83.90167234934668,17.784747960853238,17.227473971670165
-32.082715637717044,-50.96997980141429,55.995400707812706
-37.88752354076256,-20.2173750037282,-140.88513156157472
2.183332266896201,-26.155447127765303,-156.55059348576256
-29.32132788208025,-15.39173017638544,-78.52426469706882
-23.185485263688083,36.29538398762905,-86.10916814557513
-53.538490389293315,-55.93689480982053,42.909270703913364
16.89089519410207,-117.28553397493064,-79.55375628317128
-102.2799208887705,-49.46511036601244,1.840315896709832
5.5243514409681715,-9.151861184665142,-178.1518187871443
12.898590127005285,-54.6689675849863,-27.039243362607344
11.708203619429554,-14.921998060419936,-30.674875324451907
34.166555647961985,7.901185204470789,-28.32783563071131
18.39550311407484,12.462601054392842,-109.7667443570887
-14.53394450016745,-68.97942426228542,-135.47175698168633
27.812864758142567,-87.05575038613543,-161.6607175764866
9.77852763077502,-23.36060910522935,-88.81883865817129
-15.88796348687905,-80.37724313146626,-110.52263822624978
-2.9208616989737664,-92.88444160736132,49.37611694371158
22.609993687623373,-13.63372374901143,-92.38650417524894
-50.190616706155026,-15.606249951990165,-39.31939655044167
-35.370640323643244,25.962637292252275,22.619042792646567
11.980018439583539,-2.9144589258743068,117.69083633783231
34.35286623397072,17.668458594895938,2.5276216939221854
-61.665952841365836,-37.63508392325289,-14.61249497472009
-12.717013656040645,-57.38696347344925,-45.25561704532412
-20.220384583621,-36.17123357504873,79.97555855793671
-89.50434238242951,-24.243514855123944,-46.32705952035948
-34.137327169976395,13.562587539807375,-33.16018769239272
53.13847996488673,-59.039787224444595,-55.02871207724072
10.312462319686134,-1.3093372921955044,4.6176472913291065
-24.820072134595044,-12.944001011993027,-36.22905099940461
-61.991001211017064,23.87914352481188,-4.4253501711623855
-20.46284232356059,-46.77381660046878,-54.653707293178705
-41.21572663264901,43.44085756547698,125.18122922953583
58.436367856428376,-26.259747162990458,-89.65775626592617
-66.43102942831653,-29.6236827930757,-31.78431087017977
0.08177855044554505,-21.093811369693224,-109.44968907941694
-88.09493219587605,37.59308491005409,-70.68721313996097
-51.264152913970726,3.5481378246449644,244.01241408756403
-11.73172709123725,5.725131503975689,30.922507570781846
-7.840217406379404,39.10035436984981,-24.36872108584273
7.9227503146255955,87.03269279523353,-20.11374237384598
-76.33653663749057,-91.18343722937354,-120.48969992099805
-33.88488624134791,-43.90167934549652,-22.167867625691187
-10.78000580735783,-51.52219817389036,-44.92065706356188
-19.071863288064044,-58.840595521085554,-71.17038368761585
2.9420544309596544,-46.49078140815213,66.43563013085328
-30.357855971924206,-7.975109116673011,-0.6601360493233841
-49.634365233211696,-60.273356170515996,-152.76343663199333
-12.790485190509342,-25.880080748201422,-99.99783641972681
-26.397606955300315,63.05777510652652,-81.54708636038208
6.334106110138819,-0.20465978021399067,-95.55865818860977
-42.13904398897094,14.540602152908711,45.707425344513865
-30.456878841840844,-65.3507772958921,82.552716794444
-48.925091505577896,-0.8313112701185119,-33.3249370586038
10.160441952599058,-41.57863942767969,-107.2672974584094
-25.409629838105978,-0.20784983973333482,-41.61272319196978
-63.540408695920775,-19.368958892238183,-57.668480425628815
-29.34415353327299,46.703391877892415,-110.28500041794719
-20.914974026915296,-3.9932203226337606,-88.61068474145497
1.609170248969999,23.20158524316171,-74.71089131856256
54.424924102563025,-34.883394203905254,-38.64228708307111
-18.528212929700867,-23.52963115751386,-57.254917458567874
-55.61651303054458,-14.294925585511514,-52.49153015900586
-12.170533462723085,-41.70430525488379,-193.4658501207085
-57.35519879067081,7.786048527723683,-69.71375813051819
-78.95480389514836,-42.17940520130278,-209.41837323943489
10.515082271996423,-24.920874674048207,-23.459930596132725
0.6789681020447667,-20.290971138720252,-58.36726644979399
-27.849877919082836,-16.12503799566536,-34.001422442318116
-43.60982907248906,-61.38122808258832,-27.598503422858215
-108.10544515238848,-47.970134123201646,-99.48052948650358
-27.034702698929422,11.044131702406233,-64.53793128616644
5.929043111610191,-26.270386148458748,-110.63819228483725
-0.912244025183373,-45.82931850590274,-141.4610666001394
-0.3920779754534536,-42.46603777501822,-291.91174740074575
-12.094375572137299,-18.142160633528427,39.3178015536089
64.08706769253772,14.4793458561114,-33.67493802725627
-12.817411193328319,-12.27726038923323,-281.58769917862855
-3.3944669931682476,-56.347452431774705,64.42669151495814
7.0815971605730965,-62.01293004678527,17.85693089435817
-51.77209586935702,-16.189404615244865,-161.02123417346604
-5.156210922703973,7.719384009158436,31.238875344724065
-63.35917715345805,-5.269204086733552,-42.31877531952507
-25.191626955450417,-32.45395392218171,-80.49349674185422
16.426404674697665,23.460950664143496,7.4243898744900605
-41.93325061452134,14.53886956713523,77.00627662569391
-14.88680548884125,-78.96756901481274,-90.44283058397707
-28.087493442643172,-15.716500237808877,-24.933177227518136
-43.22634368834234,-53.493545766064464,-111.7362693241814
40.24151468049329,12.290961860823003,-12.262551932163923
-52.10405579643269,-69.00124214993821,-59.05462204769182
-13.023264274689554,-72.99541459248728,-41.56591884756102
-16.05100262932204,-0.40024879338853125,-73.26118437777329
-22.391523341575198,-28.49820681331131,-19.583500031744197
-65.98560647460697,-28.09040474028122,-136.36188062571077
-34.07067289695418,-18.037026396155937,36.62894266660136
-34.06061989663322,15.747744423380595,-2.8832586261644906
-43.05949294534685,-121.66071894709673,15.922519342476669
20.691935044929238,20.164160928346966,-34.18133069532939
9.20582058125008,-56.0538167132453,-23.556151352190067
-10.167880572499222,-22.0935675817086,-217.17365779016086
-21.020639084996123,-37.43353889448255,23.616142686409617
56.286748636265855,-48.459932981291544,-16.335662555753036
-2.518970887910182,-28.953127415524392,34.69751037013788
28.49352261009222,-89.16348967268912,-115.78229047382187
-62.81114783618928,-5.816696993829941,32.43614316567901
-67.21028241383434,21.545271841769875,-25.492901588407992
-15.577300155277621,-92.73784301186261,-16.328086278044708
-9.672706516837486,-27.452135397856573,-9.27968334915585
12.640996908535918,10.330532672567529,-3.6039613862727222
-31.710289341864865,-23.126058697218053,94.37855730072647
-34.81293617496692,-27.773954387758533,-5.080431809697004
10.77939863184838,-29.79324257469292,-49.63440707699925
18.661385882803422,-15.513657996320505,87.61927530023102
28.579522825495964,-37.73685354777906,-179.2300141752173
-20.658191324017288,43.341143633025865,-93.8110066525565
-4.149273438701112,23.91811459842542,-157.6160816966991
-0.36363239541779535,-16.50956628685333,-23.83203557627683
-43.89188318887701,-80.52534779359527,-15.718989680006885
-59.56773528560282,-29.88823243729245,-17.095571488354032
-40.10173772471845,-18.573070054003793,-60.805833519112824
68.0981260561581,-30.971660424763073,0.3682006236593267
-58.90130078947411,31.826638938513568,-44.270673169677785
51.538681548683215,0.31818176683126254,-7.706158421281721
-7.507590324191121,-26.68168744633664,37.20993574157778
-44.19294470067349,-29.768561179232325,-55.79482807331067
-10.051651321861202,-15.279758230610351,-104.58500164931587
14.533089406339663,72.48302060704754,-56.95057597457965
-24.07285532525684,66.78480879719794,-118.32240110218406
56.288838627398476,-69.7210618976471,-203.0484418721038
-72.90625102350458,41.94303104180328,-45.7111022299655
14.741975023774778,-69.43107822238764,-82.01182186877426
-0.14748522242023654,-22.953614483204838,73.08090130429983
7.350422912471476,-41.00169450343164,10.578568013096195
13.55712240522417,-13.8709793340887,-46.94496881427356
-10.275593051775862,-13.515252230357824,-78.91992701525464
-32.945572983952154,-30.405427930801547,-31.785499810438782
-23.637729023756858,1.5116153966389732,120.90550674565691
-29.846459710929615,10.190882628473162,-82.30959227131301
35.69135917229949,-47.22970696354871,-133.74557641687306
-34.329523139871114,9.091965706990734,-55.70956914238662
-35.4949880072329,-13.65552766828831,-62.562861964052715
-44.657140480605406,-5.858240657372356,91.62269253115392
-21.83317469014828,72.44005787179917,-157.09707487825696
72.29450445521941,-79.10394754816663,22.47345871797514
-102.03121039736182,41.44870028829672,-28.639697027833183
0.09702086866140291,-15.832321140733487,-66.5298885238466
6.4254562456363296,-44.82056161942299,-17.373603795060333
-0.6958391873504937,-21.51626829654081,99.52279399364579
5.439306902391863,36.92763681117832,-81.29368541642047
9.328322162870009,-68.4035441802973,-62.16556033581008
-50.02933170099537,19.69930061828807,-36.12664694210655
-29.59615218592257,31.35153978138611,-110.18517303770324
7.96656105149836,-24.643659586005423,-89.99351701190827
-36.20200062424846,0.44050386749479387,6.134561282025359
-38.41105419778559,15.89362702114866,8.793451883925918
-79.73537903864354,45.208961409980446,-44.69221225505738
16.560342106684736,-74.79952613487269,-72.83327402022208
-50.142989734583374,-55.22042031711079,-56.20851862619108
-9.785303349859738,7.758104706680594,44.00792197180533
-51.467323181096134,0.476747259557456,77.77114447373015
-24.186288930891138,-18.964573896244868,-31.89305429867546
38.05603427844885,-80.94455944941787,-2.6290890342153617
34.1776198585718,-82.78370689194526,-34.644622843161656
21.93065436141314,14.336609602126728,-169.96254572279648
-60.63640221137156,-44.93830211923994,-11.647909691797725
-31.262902967232506,37.987132175133524,-23.892670570780904
-50.26810481350772,-33.295803554096835,-32.49756569767576
-43.15609712123223,-84.04348821998613,-52.29236962747392
-36.408683488656166,-35.19549872672122,-122.62871556925226
-38.87278198997687,47.73734197914874,91.43841063059128
-55.183007778220166,-63.036702784939976,-53.96974294417349
30.544010195848806,-1.769258793364262,-106.00886228986737
-54.46486266226895,-49.984611548703775,-150.69327631054207
-16.119153602756192,-181.36424667195374,-42.8457192453593
-5.077442394639018,-10.174917949327511,-41.30302793382681
-15.066972333077963,54.85688045846423,0.6358645550589159
4.927493217258533,17.454330408118665,-47.663988294613546
71.11929973817844,-18.10303178517074,-142.34034411322133
27.345041008925016,-51.66849118255523,49.81920762786808
-21.222510657277102,-25.547461392375844,-138.08320352857342
5.0336545874544605,28.248404231468427,146.30375065145532
-18.491528355400007,-14.448571072447358,31.878015197569027
-73.63546922077931,-68.13506749033195,82.73793567841265
-18.805439315843078,-22.947873993952513,-37.91828945480909
-20.522888329937697,31.0921009980421,-94.3575202895459
-30.77960401369903,-84.95339060628208,-36.25043254678905
-14.065418316665067,21.308449903399385,-63.005461246022726
-61.15247913732253,18.227918334308256,-80.1974335946393
-17.922206006647656,6.027006941782858,25.083024233254335
-22.071808624907177,-12.752541860935143,-157.80740395502661
-1.4907595590690583,-79.2966545686932,-89.34801401187008
-61.098623045270344,-21.801544833071553,-54.08481512184923
-23.2494630927784,-103.8268135316715,78.27521438606509
-15.4568773095538,-24.470198963714846,-4.713039059169198
46.452022042823614,-96.55959854056623,-0.396173283318916
32.38398813995437,-8.07131526433028,-210.86644759762945
43.536437849264225,-8.055375754359703,7.11676707327414
-2.088640440380786,-64.92096431942507,-67.28033848094739
23.891972843352164,-72.86897954099749,89.75377340688041
-38.46359639726015,19.03260253146123,58.52056561885583
-5.955045944020673,41.446143430282014,8.790521137682774
-6.267564936180268,-50.518758759512096,-216.04548426491675
-31.036377760860255,-61.45641953807476,-3.6944384451749954
-6.460901299079001,40.71238955254114,83.07618934070896
48.605139335261256,2.50826210261701,80.71806305729731
-74.50227509241628,-28.868389892753118,-71.65772708089114
41.07501984115453,32.99690408396173,-31.211404892499278
-37.80785824114011,38.0322043835848,-1.0551615344566727
7.561640367603758,36.59725491606576,-123.32274201297935
-44.627666131674275,-18.869124547502523,-54.99727737399276
30.15279024032712,-59.50130263518639,-103.70939483579087
33.839704436469766,-59.84122484420311,-12.428794037358472
-68.53035111205288,-6.411632637956393,-122.09757613990276
-11.753324052514136,-18.21062365207794,-192.51063022617063
19.307035691280696,37.02292833201105,-50.141205825687294
17.239598664030375,-86.9440125224985,-99.34338881314213
20.518643942417192,0.5509026774610746,92.59513773979464
-31.92185685270871,9.118456571232684,46.53857046418702
-26.375535778569834,-14.229084806940179,-156.1488634929636
46.830489979361005,-28.837856873470457,16.19471177269822
11.716417534522812,-64.97108214198548,153.40355091004471
-35.841595570060846,-14.639625562230744,-8.184129733404092
-16.31015425392306,-3.3676499698242957,-42.219734696119396
0.3571987386497426,-71.41858756502917,21.396574420685432
-8.889173247288493,-26.84717784669816,-90.41949852665334
-65.04886874320592,-52.134992549739735,-48.52250805877009
6.890540755382855,-33.12799152287349,-34.01510913445005
-95.71536507442816,-67.14716946240323,35.01646101148165
-12.810943925645805,-28.97088056478552,-60.23465517551585
45.63327349025184,-21.97327467365088,-86.11193000727373
-37.48238153559289,21.47604994270091,-67.57940686276632
8.809863609291963,47.30129134051387,46.81650978428655
48.51094177984679,0.19429908687538244,-80.36271253118503
41.50394504034332,-64.09972534209103,-66.22202972359376
-23.145900874791835,-37.70529003559953,-52.8588925593954
-108.20442125229378,-41.93556639403698,-32.98368461212456
21.344751817516475,-8.832854993613253,-78.29871564263964
-39.49921803295187,-61.022870915837004,-33.94594082818116
28.89116084901373,-39.32847932001137,-0.013481131437337979
-46.115154012985,-42.94768687694251,-163.79994219322248
16.1433721735808,-50.99848859016686,-71.14804080313789
-89.11894794118452,-34.44085215894825,-81.63345243466817
-2.711402764246074,-12.15492893832851,-159.69763837435676
62.35406752698809,28.1418659296138,39.98358017332437
-41.46020669672993,-62.1430099977287,-87.60033038770999
-52.518823215374184,-20.11241833986872,-14.238238783436728
23.825399699946637,-4.584838647217918,-33.00476454840532
-8.240743630137953,-6.023632167647616,-87.91964398903741
-35.831776310555135,-38.63006161729878,-68.30602630399066
36.44722661514088,-14.406027457855465,59.417314700757814
-92.72546934956739,-19.979770204484442,44.883158964619284
-18.991142583706925,-71.01132321872629,-150.15936026525512
-33.90530289779362,68.165427312665,-110.13812250271343
35.950939351653346,-18.548332178636436,-10.776106290125739
-5.428392329186323,13.140442609397773,52.704177995892834
-4.128184971704631,22.011786862341694,-142.6287497812038
-9.376231834784603,-58.88749705075262,-132.30354579432347
-34.39140082920723,-39.633674390797474,19.048923226039143
30.850432072398064,-76.7686353581523,-147.75886237004696
-7.132882155426563,-35.180273117820555,-6.947997959587312
0.3837703681977871,-25.94146347494845,-85.8585694588406
-58.73513536574498,-14.503866654377635,-141.6521361877752
-60.46470153357091,-51.060862929150005,-63.42581046899763
-70.45710760683635,-63.61639269234126,-139.55221442523296
-83.08248087386639,-0.3024370178904974,-148.74394946719988
-15.231706649167744,-68.87658287227993,-45.857612527780354
-9.887542054807613,-35.77988315234286,-92.70749298037308
-74.65688291835866,9.225820429802067,-100.95261434556141
-17.60796080730085,-5.62057864273358,-33.400378531979214
6.437481983255747,-13.333666962258075,83.76754519733228
-14.254994613598074,44.692989982967205,-39.80820098900717
-23.067593863705955,-55.831778155142985,-60.955449180328024
-63.48519693127088,-36.31437738099565,47.208728900248644
-67.20236901768564,18.69525685693378,60.01098773098553
-49.97378533071425,17.223226591028286,-116.96964323801251
-48.17714338244644,13.82322099815255,-40.80959698297917
-33.301718210867506,-45.95042412175281,-16.284292122096907
5.732825458985118,-4.363908397246046,26.544397989358117
-46.302169350178104,1.8939717700216399,-3.2106717815239634
-28.19597150540725,-20.672526649634065,38.30704578211375
-44.710857666737944,-32.172633889307654,37.70331565067332
-69.2708941273889,-26.738441581881162,-170.719450347879
-19.307825014353597,-21.198551899488663,-74.56988113433668
-45.661121317366145,-31.641371424992528,32.9955933952444
-65.95608555400597,26.634844776255946,13.553086239185383
-13.647099651914875,-24.658154524002835,104.2316807772315
-66.89711085303547,-42.35064499435735,41.95739373841478
12.131016522716116,-106.15888586672429,-82.15831344255315
-59.02956847492673,-53.52811715960801,42.42782246521645
7.155704303907196,81.87523693756663,-29.1650369105333
-17.193399251044855,33.78013113920807,-74.98253628970187
-8.212332006739905,-51.01210232691798,-152.71038657140667
-32.77235511665026,18.645526528325163,-66.63073347159619
14.156787057844696,-39.2745842705229,53.277854720460624
15.447893747620178,20.446752599805052,-133.36239095009302
-45.29290660022803,-38.81971168274754,5.389127564142832
-11.765559233820252,-0.8044885188407704,-94.82535938725017
-10.89064279425581,-48.53079057080049,51.414651537019026
32.804330226385005,18.318177787362508,-132.63903716261348
-22.23243942832338,-63.23869331945221,46.56912584246996
-91.69090358238722,5.497289268676546,-48.048812199887905
43.40543158093857,-24.24771934316002,51.891252837209706
15.91020838129274,-17.258333582786072,44.884924295005845
44.43061993234038,-12.392624491402925,-49.77920615716086
2.818600878200037,-21.253383774354607,-113.43128017245328
48.82772590831138,-4.386879741745105,76.01035672517952
-95.65900949739122,-4.259759221971251,40.205256661958714
-34.26664137623195,-50.836711363630975,33.585000763491195
-20.008813565289024,-77.78261640499898,-67.92782040270056
24.470087921955546,31.5815851380114,4.019879263943544
0.3279312259166858,-21.892573911952702,-19.185310829890593
-1.1359031400416768,-38.11191165864112,-66.54179457627062
-20.139902360381864,-28.61041005018779,110.80758613721372
39.379127527821744,-68.6639292094628,-63.04624425495143
-99.39179859384701,-30.487418336056713,22.425923231928394
-25.613754194667862,-51.5729388334304,-4.695165962381999
-82.75328965760005,-24.087178605179375,62.39816145879507
-45.75448993271595,-39.22346716031691,-32.83034921210445
-19.54320711095144,-16.930051039871806,-66.32475617583236
-9.763290272266902,-140.53338334010806,-39.887469313356675
-61.67321122828915,25.763488583152267,-55.40316460288536
7.138544312509481,-15.116230096540491,11.257395154499676
15.27562425328783,26.877351931409635,39.986247206371004
3.8731278776637694,25.031484673509176,1.9088667590562665
19.945419831448277,-33.10170852303764,32.371211949208615
4.560751522086818,-1.2662658044250357,-18.12812105084165
10.228020278674368,-9.157557066687744,44.70029710847216
-2.5584097327946225,34.32295637717538,-38.69428255549863
15.842625346657975,29.449470822556663,-117.57297867918224
-45.50509941041986,4.172036437744207,-33.08838334051012
-4.081298237346491,-77.52528091907719,-6.41584857425844
-71.79360389481216,-53.72780767238671,19.871517296749886
51.12940916048122,-49.679642139966646,-33.778864849438136
37.445411235708235,-17.257908601674195,27.759228945673314
-21.1085464852712,-66.87971784613472,30.94641836959832
-11.748673869089327,-2.023278345322751,-59.61679314650766
-41.612657715727366,37.8318888949667,2.8353447852406717
-74.70416832056196,-22.393592487007417,-8.96897163278695
-93.86563771378151,-50.45443567770783,5.6413784860380645
-4.380870118717915,-43.50497331091637,124.1379136675319
-23.658968601180298,9.665631071380808,-132.73932885553026
-9.457568766020215,-63.54977049817602,-28.865660235687734
-16.58347255328948,-1.466232415412879,-124.0021819614673
-35.75025936561517,-19.835340348446763,35.06097006813651
-6.205796853206895,-84.57381054554472,-84.04193058168576
-40.259528371396186,-36.68410341016805,-93.56421118434417
4.824032160219481,-40.85383030723301,-117.96460098452776
26.35083657793694,-18.448842269593722,44.5540541439664
3.160351673455505,14.23560039292071,64.22126974595834
-78.0846092613728,-61.58393430716346,45.79458302291512
-79.84578419285313,-44.7036509323307,-6.2891768633043625
42.14723157435617,3.889619159965921,-37.455259747227146
-40.05960953010275,-3.808807566324859,79.55587679675486
-77.96063008648508,20.55745940988586,-151.03514659599313
38.43474193018651,4.915920272115919,29.53288387368427
-11.824947260580936,-15.960608049703065,-156.20572605582532
11.411936953724858,-40.00483537703257,-98.96814750090797
-36.14657841025558,77.98322719734458,16.61157665620827
10.125446497094359,42.65278639190346,-65.55847852999187
54.17168019885156,23.12835479208686,-157.54774239842078
2.910030249582679,38.403089182208376,-25.36060294884013
-15.626456005696962,-31.05446044328175,-63.73151513236983
-34.20724072374901,-84.06091741223777,-25.286239842250637
-157.69590452119144,-16.122359622197152,-40.50247664657904
-51.646768556895054,-14.822155324306934,-105.12306249094574
25.22802350148104,16.66420681686813,-314.4768913188947
34.46859103168806,-17.622923309571647,-97.78605042850603
21.157973270714912,67.48615103324396,-92.60214504591909
-36.51315990760061,4.475204825472435,-44.84458810926862
-110.84907648214846,52.88948523300988,-105.11846504652858
23.495029196913784,-6.534875093002309,-45.313016590647905
-29.96356572517334,-16.775785614009827,-78.03302680624154
-15.654092963949275,8.115456303698082,-46.586800065224104
-61.0014685826433,8.625607708128097,-119.80915902605251
-72.23891039596708,1.6283216551208781,-72.12029526869638
-90.61736867313827,12.732714378580297,3.3604307766725157
-15.706712657978215,31.72086999447597,-41.97617362464412
-48.54229121111574,-96.15642435629437,-14.15254719059466
-34.827162468996264,-46.523191248747175,88.49965192205653
-40.13095053720679,-51.156318110182745,32.19132261955174
-47.079057828537174,69.55505396799525,-70.9413081487557
10.127495460612352,-84.49180394010403,185.25379311787566
-38.11943900392063,28.181739483368055,-144.5438502330515
46.8271562083969,7.5511463833048325,-30.81402784773108
7.635653932620624,-2.2082040332072452,39.9365745649616
46.23705739371317,-17.81488789460395,-31.732179545106803
-36.21279003606986,-2.799316385957841,-17.454349922065468
3.8219587658060696,-19.22771713077862,-91.10897727495366
12.020669936043696,-97.48312870449364,-24.14855956791166
-50.64007709289604,-4.278869982635188,-11.70324487908183
-64.70659222417191,11.640126074916473,-142.56990776285338
-12.493829244555277,-48.30018385967789,11.747363446043401
-11.207864442816586,-7.809577004559866,-25.640822734096815
-60.01965645540128,-31.20390584175015,-19.814826171655405
-9.504188192405001,-115.35267763759194,-80.98302016909554
114.78741070473737,18.31362513774134,21.601497437624232
-44.532666996420225,-18.775219293550517,49.69984679782529
-16.70697087142062,37.63232914816343,-107.81426067961354
8.115969038993747,0.5462662843649397,-149.3919765276553
-154.52559332269348,-26.836017146439872,-135.65282196354622
36.50270355544261,-71.8317043162184,-40.33739127658307
34.20464884351632,67.6793891538759,102.9661182075966
6.5055982158376615,-12.522613295277662,-17.062350916510006
2.147397102520813,-61.34270939511956,8.100918048853345
16.664631323773555,-8.136736057534193,-191.72997166377027
35.51359823751674,-5.24790892622428,-116.32972836074359
-48.231575008523386,-45.59268101821482,-63.36425496008633
13.39719473940282,-21.002825834453795,3.2101785585924034
-86.5191868528963,-52.67983430786804,-136.89005760542977
33.97281848016729,-12.618383246088005,-86.21507396412174
-55.47939241312633,-37.69862119676097,68.5469370288447
18.794925950700673,-33.39268418148452,-244.64881372170385
-67.28463412902184,-46.69476534374907,-132.61867753219389
-4.535974926100563,-50.02159021927555,-18.456127555155724
-56.2618176125445,-46.95563226410263,19.79493087266529
-117.23073333061953,-26.59676410231161,-12.11711881098449
10.946928861584556,-41.08546494831321,-70.38071053970695
-16.247586908310858,-40.39175541603466,-40.62114163039152
-3.273221942337294,-44.1805175021406,5.51765384776607
-86.35808060747614,12.702358840987927,-225.69660116348604
15.281765174392262,-7.814982358422508,-68.63351271003883
23.370548931424942,-34.72431242142371,75.15652538178394
-47.803193724284526,16.26913127215736,-104.92446130325264
0.727139791167307,-45.59404716820455,-72.96275255281532
-11.855009357148138,-74.45701165635424,-1.9679197448647727
52.402925958386135,25.145667364091352,-45.74716200592484
27.90142930289327,-76.96993065239809,-206.53657629977872
-25.662297465898718,-9.29170884445529,74.80686438948194
-69.44662525288564,-46.68309250110388,-12.136442047116525
49.33022014160352,-4.403119954054668,-217.52716365313998
-111.75621554625621,-46.803427760029415,-11.238079029200179
-12.633601332428006,-31.45302111060082,-16.04085887070317
-18.902060175036116,-41.36065694304186,-104.40870847830647
-43.27423899369051,-104.64977507467977,-48.87357684224291
-13.124674059134367,-13.503475185332713,-25.814023242682786
-23.851795636700956,-87.02072391019378,-144.20263622065227
-22.310920174377824,-9.271073604947425,-246.68702269093268
35.013120332443116,17.930561458970544,101.31139891829599
-44.35911940323222,16.29658087485513,-62.656104574084395
-21.71781989961196,5.460650422005223,-202.45702634192742
-112.07359989622434,-29.816932550176503,4.135780661443931
-57.890079245483136,29.562005214438408,-36.86288085549238
56.00706274037992,7.466877759589103,9.051933120978049
13.892219409746133,6.370988652298081,-101.20679891342672
0.19379212243417854,-52.46582750840338,-168.65858782656767
-26.541319488898733,31.47718114953433,-88.38475598159435
-13.703635458479557,-23.145080255932893,-8.301723394477545
-58.48043019301721,40.64415180851623,-131.40911685231004
-67.55163646684252,-16.88839911176184,-17.88537981214756
-48.91491585239204,9.702896562633324,-63.546608564124824
0.696436596101325,-73.60793324065764,102.04747334266989
5.870751081518595,-45.17538512427358,25.21654588959271
-26.181474467531523,-2.417524430545825,-65.32367360033226
25.39667653540866,2.2952730508178405,-107.6288438158243
-11.370466318000624,-32.869736173321755,-50.41766351429335
-48.852035448137826,63.94953782172149,-63.683040047022494
-43.2675412160815,11.562971353692653,-103.30492383823554
-35.325020841174165,17.97627024173768,-175.60603103911475
24.106396777707594,-16.4117893414956,-127.27395124536253
7.533153713134986,-37.02696911128435,35.48706409713512
23.644699835088375,4.203690853563401,-81.67578631990091
21.928300583492415,16.383603301367067,48.048132081576654
-26.75999319932847,-50.686879159376815,32.999663845639915
-23.033735098128666,-59.323828572744894,19.22830858651934
-15.060425266897608,106.0734008095151,-45.62146932651741
21.110093986083946,-22.311006728757892,82.06965061663908
-114.48252203137075,-2.908304536773148,-85.27304167553186
-6.208639831570732,-70.09799501086415,102.4534384949076
48.04927005547745,-41.73584860819852,-44.6475078428699
8.92267568526293,-9.543222690345496,-60.3038471274846
23.447181159707135,-29.775617122504567,1.3724811495513052
-28.364653437835738,-54.43403530254409,-77.30321390274119
-35.51488666216416,-72.36977488421806,-90.14332456301098
-5.433176249377546,-33.307770248048065,-20.29511003477577
-37.25237806608422,-0.6166057785951509,-104.60067749913023
-28.708307056386985,-63.15435727279294,-80.84966603559832
-20.95080110546624,10.122622832261925,-118.28224583039108
-32.87933397816463,-47.1414912515647,-29.338209428710606
-40.888251724939664,-28.06686039660979,-243.11014720071734
-62.25494987304339,-120.32030356119726,67.10443299056837
-77.20623791439394,-20.041558935896802,61.8889887184347
-1.1231494082446076,17.540900145376185,-124.07224390428394
10.006930222459115,7.657654191887993,-48.869316241001286
-0.5444091766582169,-45.924705980640105,108.84981517168197
1.3226766025973333,-17.21024916372241,-31.219108023992582
-34.930958061210085,-18.857448106182268,-1.029671050259381
-21.575925430758254,-3.4026894194344735,60.740023176172414
-46.396084394005285,-21.851531619775603,-44.61503808234385
-33.36739200208603,-62.61457395931789,38.186413142711444
-68.33553953846251,32.04881933062922,49.12381807896375
-30.129680919396336,-80.11417363468532,-51.426928804844685
-32.85424094028316,-36.18092074773419,-163.86772826134836
-63.58518087312541,-39.651280702034065,-121.62687527057085
-36.4252583186757,-136.0612426923126,17.70672797381667
-31.50708900218683,-4.07202629238113,-90.83097227645672
5.633844104263122,-46.0936502617448,54.85548789863172
18.308627259340724,-27.046439865110855,136.53460506255647
21.259182529617334,46.48654727890316,-38.32590993217576
-12.31863528611151,-31.77941261211684,-2.537300687275767
103.91397518545696,0.16244990613134647,-171.77217987033816
26.904483348440266,17.543087657330403,51.49835936667701
-80.23156241753172,8.964038459817985,58.22915445830347
43.77710063237125,-2.530865194974858,-102.93907984735522
-97.15603499709344,61.72688331008325,-71.90091816222751
-68.6820873713384,-32.55603633810118,-107.14527432142076
-68.07614262268496,-24.93145170387757,42.456072890140206
-48.49168008602942,-11.578601521286764,-64.595180260654
-20.248188438619906,-16.318216769899863,-86.88342153355222
-66.02968773026234,-15.96178196156243,-27.937020351967682
32.38971277600159,29.27483231368455,-11.493356737309242
-43.9140483090451,-32.5587344520637,-225.0602105683956
-17.960349662956073,48.46951595064509,26.898769976024425
-84.18764399378395,-109.28456760539859,-27.197644179335892
41.368465814112284,-49.620208473911504,-141.99847691865986
18.426075206034405,-76.59042011187489,-198.70839114709167
-9.871318969112865,-49.928671041205476,-92.65666802860089
16.149580759762216,-33.68646038260109,-58.049106983661645
-7.908527054067104,-43.70694564546926,-173.45375118913182
-5.949865724464489,-2.691376376191691,-111.72058567322512
-10.203082788797614,75.70384053893119,-87.36351107349066
-26.572630655718726,-78.76996520634023,-3.914379305547861
-32.856437202772355,6.687957317860601,38.87154181101293
28.07607922234987,-13.992406675765885,-42.60147465567878
-70.88381168383997,-45.83621110390793,-78.533556387342
11.626394625759268,-44.958578915991296,-73.75787160639592
25.470544306837553,-76.31312987284997,-126.7864396573446
-10.717666640135118,-78.33130145989107,78.50832495883773
-16.6554005480582,-46.308890408867626,-97.36630852637916
-40.88230826212939,12.226769313025613,122.04374180491484
-27.903475609518136,1.1101532563395793,-54.117452963565945
-38.69661539157137,-27.693646734162954,2.378119936937402
-34.89860654414291,-111.16359768194293,-62.808686147921115
-45.66650886891645,32.025926213490656,100.41803656046935
-30.101696342035392,-45.90180375447406,6.607288352502195
-6.859736044769127,-21.44248937342972,-45.75846113639041
-61.419732689873626,-15.616048162093389,33.084779541169155
26.899760227930557,58.69125925443622,-140.3671348193713
-4.359110198392109,-24.93002628647791,27.72768758998984
-14.000427010256335,3.0181823346118932,-99.00995215467297
10.056643243603688,-24.772482236625706,-26.966019246199387
15.325159613569674,22.555857409781567,84.67150949960231
-56.68812710676367,-83.54484417330634,93.05299940917158
5.770058490952586,-78.7196429039358,73.47289868696512
-44.496554266709076,-34.37748911836453,-140.08606649644352
-61.5550425096929,-34.521795458009535,46.045221651350744
-19.493839344149922,20.49023879367062,-101.36883345134463
7.2788632013275,-9.774006958515002,20.93741056952738
35.77395382126549,-53.317364566691154,-140.61913840298817
35.86097805629176,-52.50656320792229,-132.4574977480256
-57.76875684283091,-32.96878938241401,6.349186822881016
-3.1480642166503507,-81.22005181555983,-47.56671512342711
11.53915315120718,-25.95252882351805,12.615610848408053
-60.7663738968764,-6.088451738900959,-91.92853112805872
-80.02985573283544,-38.94961824171175,-166.4067537017537
-8.88350082653238,27.80606727987169,-34.37390932053039
44.806905005718505,-14.933317969326346,-70.0416686029137
-28.085643257455395,-62.873491481493204,-33.32279798724102
-22.65678207842438,-15.78313973416643,-2.444765860443894
-65.02750419970972,7.136372116857963,-88.37425755122547
-24.48936497332541,35.43532082756527,-222.71336944956073
-96.84258984935423,-128.79934096908366,36.56215028032058
-30.26198450303422,-21.672837284069445,-65.59057780277328
28.78525659993423,-28.382980262436575,-70.96529285259408
-142.4758197046708,-26.83656139406219,-55.653145797208005
-11.05933010178104,-69.3819169640195,-8.228774238402984
-59.70739179894706,8.950450910633574,-106.2703942823365
-52.76752292953095,-2.4713690156801498,-116.95048578484354
-65.42476281924587,34.760791008843334,27.367033431915985
-20.463521870279155,-12.79281063520051,-16.042232568181014
-32.56970608321963,-5.336527489719916,-30.023566467633987
-38.67990009834915,-1.165415252572238,-64.98572587410573
-3.8817102826357193,-57.64920176239975,-136.6427461013993
-52.07185553197786,-84.75847062567846,17.147778591664633
-61.56112118171638,-40.96492980106261,48.55082997383002
1.7868708246496396,-64.71289141023298,25.455281939638525
36.18911470376945,-15.976446341801974,18.085158825729337
-24.56046771709038,17.40548797321732,8.372488552293603
-113.87056180294665,12.173713661721195,-41.494731647544995
-34.6130231894106,-82.60164357073404,-62.86896739348021
-68.41247320194748,12.743478521826425,-42.87881681843206
-35.933737978170825,75.51698113399404,-135.6337666737325
-4.06296329565059,0.836332849339879,-26.583710514736406
-47.069963924020584,-96.61090854417262,-77.65783963167104
-51.61685918029451,1.25763851478208,-174.96275960958735
22.329922534837117,-56.71358531755376,29.821852477532047
-24.639130537666865,3.0151660141436096,-20.541860184900504
9.635895304150004,-18.991226278438578,11.40095113112578
-3.3445030620041827,57.31672574903487,89.88303599852793
0.9866793307402659,-93.63473936759289,-139.3384772686041
-17.877486802227466,3.1686919723075135,23.530560594422965
-64.7811562794696,-39.025224291882395,-148.5797539702133
5.589092201868713,51.681468543279095,-138.6646870418191
14.511623721117928,14.07940107656735,-16.811056047252507
-56.76900920166513,-44.28251591280454,-69.53248117406558
41.77099553681462,71.62034111323817,-32.34270924062337
-47.855309128762826,-108.06296896829217,-57.71369652791805
19.924397680670857,-23.17401031006305,15.386457819460169
-58.87878727366053,-2.9099885459739774,7.458851300728355
26.126877511866333,-5.363399032484274,-36.21312836515425
5.381875122586223,-75.14724446988322,-125.47097694960252
-36.77087776269953,-13.432277310893298,67.3554313810765
-29.99473578034148,26.692601402154338,44.29658966679068
-1.3416171503813317,-77.57119706219662,-40.42288373527154
-17.427211674912098,-38.053179945431665,-110.4312930357865
-55.450915082710964,25.72676521448193,-97.01237866939793
13.316984844782759,-30.568287279489507,-70.0366114734225
-93.82219580976876,-29.616773791491816,-41.787681905897784
-61.0334954312371,26.08978309395375,-93.517003625314
-36.374019287565666,-15.41944278350197,101.60128812721152
-41.10325623560209,36.585635745039355,-12.3383612663558
35.608946441170055,29.48783697317154,-150.82844822993502
5.24507860997625,-74.0620880066675,3.9942371721168826
28.912116330294026,16.62013541452447,-0.16106951719635987
-60.374423049711424,-19.448793083534515,-18.711060423170032
-1.7744130118524097,-17.382045618700094,-120.89465766560363
1.9662322013810467,-52.00060416393632,-81.45764165113852
-61.81012779274451,44.12958591954008,-14.390853200341649
10.112717082972573,-28.833927748778077,-32.839776600254844
37.51324686859678,13.106415424003913,-2.3370478599808777
9.161690821960107,29.985650145793663,-58.121769661534074
-11.017935853084346,-25.475257318027552,-109.28287670669688
32.71797904368984,-69.22310941347797,-162.55191123209067
-41.0134035506763,-84.04119569334866,-25.165670204784902
-47.255991938098575,-69.11745807248245,84.80192597609789
-31.98582046106327,-39.74797178886358,22.18063601361331
-43.93978215337496,43.296022279687264,-31.164353229682305
-92.80408654050973,-47.506637612369126,-118.12916355247782
-46.37899981912872,-34.71149595472777,-76.18584562963731
13.570111288177799,36.01897322179119,14.386488632585007
40.81918717310077,-78.68253116547268,93.4803725535447
-18.82188659645393,-21.820661247958384,11.16617284812962
-59.15351753730876,-3.84734148816084,-74.29795943542203
-57.70329811710195,43.206933719854376,-61.697659796483286
-33.44069818260998,5.620367647115142,-61.13770037455872
6.475710237882524,-62.60311926056981,140.2304698840245
-3.0444737659876147,-9.347143575800697,20.746979546824136
53.03608866141215,-66.86287429316812,52.07724666807928
-56.08543718481633,-27.945442712384633,23.010218343282567
-27.56700750875104,-18.99363728224881,-27.286262040567514
44.582503543492294,-13.59725215401935,-87.6387743246166
-73.54134494159798,61.20211923120864,-15.854856339790835
-111.20844933896015,-8.276737130284488,-40.61142818230086
69.55688869361198,54.6342575130227,-125.70970183278752
-77.53453742176573,-17.13750884670436,-180.32758298176137
-13.162904463175417,52.09468603750126,12.492157907076319
8.039612564675238,-48.36689892832027,41.03306924945397
-11.714236099104715,13.821519615184421,-105.44135050287387
-8.35417461787538,-14.79434316028227,30.459973266522823
-57.54100157975031,-21.44225315255491,103.28230432887784
-34.74210955381019,-30.831853143850235,154.66190091687685
-10.710215441682035,5.339311414920193,-86.45412050799092
38.17418449040241,26.31503335100335,-2.1591395703442444
8.703867551475305,18.015117302543345,-63.258845500346474
-48.778792024574294,43.262952173651755,42.69144599623537
-58.535245570630735,-14.113199564294138,101.95890234598463
-43.249910763119246,58.357953069177725,61.31073039915499
14.456855585375592,44.196215762322396,7.34300110315619
-26.318805514578862,-43.01350824475694,8.945572718495498
33.42237269619404,-34.744413279767926,21.831830035386837
-18.9442365863651,-26.058280862918217,-37.73482278551943
