-2.9083546725547538,0.23683977538675063,-72.19744675501154
-24.641011752739214,0.17874067141287872,-89.76682685932897
-11.201757047893707,0.11571660607172458,57.307603357239856
19.35944981778489,0.24071962935457258,57.577874043567654
6.408286025942889,0.17229704407365873,67.20708270742838
6.6520360068041136,0.22200866893257046,-192.1188989660861
-13.112893794069402,0.12132855444439473,-73.52362098287621
-23.32808804758614,0.3161101487860838,68.6237478259358
-21.364315289587815,0.13511378805137086,-29.211899850937527
-14.630616972061237,0.2086347755659131,5.634659013847141
9.665659624303071,0.20401368721027288,63.92025093283339
26.686607527106485,0.22404183298306926,-114.82400029286018
-44.05499099611437,0.1856824204315003,173.92979474700326
19.320660727302098,0.15408876558480994,106.99985832805893
6.1672651459632775,0.13419346844000662,74.30473866327513
34.083483640621274,0.2115643191088513,-135.95569098595382
10.42313880313583,0.24808672060664655,31.70314914550359
-28.92469566687366,0.24144775124527984,1.891656568674807
-3.3563453553289224,0.2280977651987307,27.559191073607987
13.07122004451086,0.15027300366105076,173.37762731313023
11.04018987355875,0.19748940181955452,99.67958770315045
-27.45601351730832,0.24520756570231156,79.73946983949101
-1.4530883044903022,0.17616693526492505,-16.941757438054935
-23.173679642600824,0.22908267056731385,46.25164852993648
-8.985768321874712,0.2503371638523668,-47.40704887464414
-1.7967380588378496,0.15263557496814908,-26.029733253849702
2.2853867567189146,0.1786491654700651,36.62136348792061
-24.717575053084325,0.22707698335559184,-75.45999122879788
1.0126582050025643,0.138978124235756,-73.33119472704725
26.88236370481318,0.1957713032223752,-11.62246904908675
-1.4403784248330396,0.26066248443024087,10.010924859972722
3.4048520421122443,0.21840737308638486,23.702681505584128
13.730089796867404,0.2488559231845758,12.400084114407333
5.023586294044441,0.20682314766063367,18.597467913830943
-12.73790747552786,0.18473434841460204,-41.48346507208646
5.429046440843647,0.18597525914154217,-20.806216684506612
-14.008212719500204,0.23207739094528623,12.515736002466818
-23.19751327431313,0.21273204948064342,-63.35374744895419
2.2853648075508586,0.19175910554784928,65.30386506238956
6.495586317923757,0.23531885984176326,142.69824473215706
-6.948364413738376,0.21500309001904117,0.4021469765453068
12.007654714518353,0.18894500929364288,0.43009064087074605
14.406064064284315,0.17922985622094323,-128.4979688246137
17.955161985189402,0.2440742351338488,198.74275484264413
-2.9098351682758974,0.24709640408181746,117.20719206922384
8.99036657227967,0.16064424043948358,-97.19182096220585
6.604085256471724,0.2544829599624445,121.55906403503991
17.323600906416395,0.16256243184738495,-56.90037947505979
20.46684169896747,0.23086214615021064,-19.6384596539267
-7.3993795069795,0.16508645855703252,-50.06861184116577
1.0023343902717914,0.1261630828328542,74.81052811312269
23.819835025170377,0.2093413745265584,-65.9053414341589
-11.831320525099713,0.2271081509012059,-136.93601254662758
-17.121770751640632,0.21996015448390227,-124.30054730815993
13.146906721483408,0.23329862552710603,-54.18674034787492
-0.12198704949794265,0.21090486417350038,8.191649665014882
-17.584782871680183,0.13323017301553414,-101.6794151583688
25.608695092157546,0.17477811521785772,-15.942660114483939
13.402582051576928,0.17637393466044426,229.72635906107493
-2.0321452224558807,0.21179494595561552,-137.2329680766485
-31.72108089158955,0.24720937064682824,-59.323490309339846
24.430722928133864,0.20573554565872343,-22.83074161083598
-0.6232146502166875,0.2719170880206859,-2.9511958445777053
28.847959969610276,0.17898725062124102,-85.67296984718307
18.081542762288095,0.20106364136970117,-15.782208765275364
-24.66212640562748,0.153597388697234,-137.38010798101698
19.68615834037243,0.2256359301573243,-80.40999711682967
-33.542069582665675,0.1458564731542296,-170.42239901856954
-1.7870624765512897,0.2360876852909833,-96.37355083998264
19.52143862528546,0.1635549474503701,-29.766678896512893
-6.5909965896335345,0.38022835853391024,-96.89035159853775
10.90437432127344,0.1903958005375201,52.48610320159801
0.18509378698695855,0.19012177871886493,-3.725471212652841
-3.511018008545572,0.22814239070626907,-1.8755948076287308
31.93506095159812,0.1469792839696393,2.3048249749842005
-25.08543584623038,0.2791315948494527,48.25735574950077
-35.02916651164678,0.18427059862979434,49.527929900085425
-11.769274547591325,0.22146637770032224,-69.63965028300838
14.667045697803257,0.3208423381417948,-122.17390183986252
-20.735361712091507,0.1561148433984264,92.39883162244897
-27.552108378019287,0.09382196837942064,-5.16464150304309
6.1303178580744335,0.16935254502675412,-185.12064390383688
0.0844970527053321,0.20935319352140605,-120.08597569697682
-41.984371463735066,0.2082156068473888,101.37573621810402
-15.659120776083402,0.2630256630512717,-76.79400796678689
10.736558621709786,0.18251633435156217,-88.1690040157283
33.65677070563035,0.19529870315660766,4.263507640601474
-1.547610392536508,0.1380095503945502,-63.3138444955616
24.941550628679874,0.14782617453858052,40.38838248674072
29.68922755815217,0.14794942402736058,-1.8815618756932342
-47.23038621943418,0.16828287911067252,132.1697736176713
15.889055627468906,0.26425925228793995,11.846187033193475
-4.344409325049262,0.15727413404975885,125.77462724703825
11.353356158783981,0.18212380285185453,-25.65216489626927
-17.336363260198134,0.1587858505398958,-2.5156799709250306
15.866445957472578,0.25943484973780945,84.2282638926881
-15.524645433661455,0.167001127121469,-170.846274986139
-17.267977665209425,0.07094278914647187,1.8508295229299727
-8.044627652493627,0.2050612946555319,178.90128301324435
32.11960908861237,0.13421366878721924,98.62655373693653
-1.2915853797344448,0.20038595602337328,35.579480928914315
17.039838981423596,0.10868902811789724,37.09708358976781
-28.715914665389967,0.1969532052033237,-81.67590313502483
-11.105413393980177,0.25392276842625444,-16.176233361652777
-10.809767393205261,0.2673926151163187,25.077417044415967
-28.910579446214086,0.2090624194545344,72.3168009117935
20.787735572778598,0.15913447758532684,-30.540316503833775
23.42322143967543,0.21350277480587,-24.660144196073308
0.6276731047475335,0.1660426237913445,-64.43786980441398
-12.826855086852065,0.14856372683683744,-82.50022472996646
18.77874466935967,0.23745729585533418,-44.87846199802624
-23.388524954680353,0.21763759291539414,-202.23549776846045
-7.225425630751992,0.3030579917428919,-53.006648726751514
-9.02862867266981,0.19471652742264908,21.458061096054077
7.948435827280068,0.30894889785554314,-113.2510007076143
1.7355014250131517,0.262777898650203,38.042063651702364
-3.886398533053102,0.19685205434656874,-122.07952557233467
23.987974468687593,0.25380989562249534,-43.64711841604114
-28.268619707552066,0.21436524329898188,80.05426271107638
18.175235678694317,0.08725704350666069,63.64396339387183
-14.418340072253585,0.09908967189863956,-3.17791414055548
-30.26361201395048,0.23903037924175147,-137.79655147929762
33.94655619112949,0.10141976599504847,-84.4804262705157
11.464158725068334,0.1417627535202854,64.24817193379477
16.028387920029164,0.20510004834866322,102.59297265857079
-2.6288223906576484,0.14230421275028057,35.48268367807841
-3.7597530251699585,0.15794075946599145,26.012631554029348
-0.3805389695942366,0.20172902948601737,-20.893438764174014
-7.199717679743048,0.16003362852042402,39.739762683207616
-8.340120699904542,0.4052361900579018,-25.027214532202414
-36.55370161329628,0.19972050125200824,142.9671926706985
-12.504356369367681,0.2762146231686533,126.11236688369183
20.952846517585236,0.1674425617773935,128.5546394871836
-6.855703535421329,0.23061866950073948,-41.499690469570034
-17.628048303424283,0.2557488621821103,-4.277787741726265
-0.3522088157395597,0.17400245586638674,17.096981286778494
14.482784806347906,0.24124944391718,106.39080117066055
3.8825987651543197,0.16601271693726255,71.22520360009149
9.732546115369056,0.1499317254405252,102.5854358136697
7.37871555796919,0.28998120044822145,-109.3738321914722
-66.49588410115945,0.11974888529535477,-87.67873687386997
29.942134163754712,0.21969553032838307,-87.17756403283352
9.380458089639117,0.27696169089409917,-40.37082761685547
-16.838185522980577,0.24761999252416456,163.34409193348722
23.623090912054735,0.2034115720416943,-26.968149148603715
-24.23638275143658,0.17587431278046536,-75.50567959350106
-14.295750052918553,0.2678422163471066,242.519541168777
7.231804651937656,0.2875466773017876,45.29951702119582
9.919907310763886,0.13169930693358473,234.2525606029522
-12.200935554221584,0.20971648424411815,-16.3025459432184
0.999154725774321,0.25900995221035467,-54.340457503036056
-7.160205815392478,0.1693711718481749,96.46397526970131
1.977838245701167,0.1291644878123624,-41.66261518695154
-41.54288283694471,0.18856685155797426,160.22586711947636
-19.100554829963674,0.2711238319340189,78.38718352592021
-17.273522843656874,0.2508304213017881,79.64110595111123
19.575495258114103,0.21294146009806397,-12.789672993334547
-8.445719960544544,0.11283621768395757,159.85253001277863
1.086282265262358,0.14247117282868235,-170.42805560223437
17.561914976737057,0.3052980685400629,76.29377452848553
77.97516364265954,0.21467565109494915,-18.353495616541704
22.098478810073203,0.24930537615437387,60.95185650124212
-30.377503767271527,0.07880971463592792,13.832063109079968
-23.601831354013004,0.2206861205209623,208.5308578910082
-26.040139390848612,0.26197433286873845,117.90403502244291
17.497512031549128,0.1700060303999667,-3.3560866129729554
-4.164610508641472,0.15172636567572495,-47.94684471350191
-5.971238706754502,0.19206477047640896,2.279453320983882
-12.292857026818819,0.13997247914935831,10.564462992124371
26.116025506778342,0.19374639929490242,45.74497260211156
1.7931786382447414,0.24266158449285244,12.66031687909715
-0.0574646088137212,0.13127850489329945,-28.43422463805888
23.69372785186714,0.22710954266269015,144.02210093279066
6.997623969322552,0.21384796786958898,-185.02951792332135
-12.322487837384307,0.19217712455683533,-16.14541291223788
16.22886598906938,0.18140291369856748,67.33753799719985
2.393935018246161,0.23799661443542974,-20.386888069642335
8.778994079324857,0.1942157423683993,4.719177169241931
-32.960095260659145,0.22232877018824473,-65.65063590864003
8.224336649044519,0.21201488139996533,25.757667074038597
-24.93097949577109,0.20139563826265666,-200.66299690249716
-6.872499591327552,0.20011240168675007,-172.41286093992292
19.938329660985733,0.1925600254096004,-91.19251920385469
4.580997612219439,0.23256876241684502,56.32590423107572
-19.507463381972862,0.14503262151179008,46.64232127637403
21.59129377857338,0.18694545163462967,65.74266914414885
20.623419095405964,0.2740909288576504,107.51514148754595
-2.5583430273627887,0.22988658552766914,-62.04430195806617
-18.666007812741007,0.21296778072618128,20.30042195904115
3.1693434998436487,0.2401283617105025,-106.03871104140678
7.647020964106489,0.16587201094188758,-22.271354515591
-25.487325380277426,0.15922185765714902,16.428703413678196
-12.705888080724373,0.1345798416759924,-148.5380799322625
18.239336038256834,0.18491639434074716,-46.53955914470663
-21.324834973695598,0.18887248750574426,-67.98871932416198
18.66257908175711,0.19551076031728812,-167.0780574854588
-10.813508925140379,0.1554255522517058,-198.52835893180168
-11.957158590358574,0.2650040742395304,-7.978829264569434
-16.30644000718857,0.10931407778802475,-95.29572904112405
23.541836750039234,0.1799531932524221,77.78809822625347
12.173410579774071,0.1431111588608927,130.46155736482046
-33.42165306308179,0.24264090735878602,-38.569197530436576
-7.370263957019592,0.22414870641649814,267.4678227331757
3.9319662839304352,0.24868419362795346,-71.22408465845432
51.59979323143997,0.17395255017368677,119.14953394104076
5.932251660413436,0.24075612075133893,83.82092904880793
29.168117685320585,0.22327655415419317,2.4327355345981294
-15.323665513365135,0.20900408957211908,-127.51403280504532
-15.770484847961555,0.16369651577148578,182.6884487037404
45.30971132072875,0.16163642658514224,-111.79628250281723
-12.647579729831609,0.24057491737250225,-101.48518323692403
-1.3604110807525864,0.2748398944141949,49.2816340891657
-25.60704060293013,0.20178721935545918,165.72186601436786
8.304445151968608,0.13625220978429214,-10.166238416689607
-2.376795180732981,0.17546371115933576,133.04491811418336
12.330379687072742,0.15801769285178788,32.58444193588669
8.404162642371098,0.13517986428754825,190.56761064940426
7.648285991154675,0.083870255738407,-73.84569427657063
16.099533246648594,0.11882883448427929,-32.607995699742695
-18.162330365752084,0.2132721062924613,121.92562608409767
15.632031656878375,0.17328157074444991,14.150020718254186
4.454927724905627,0.2191209253672083,168.0989520510121
-14.886246940638163,0.20526284661615052,-99.88960955366264
1.9104566696815515,0.17118902243448858,82.36606844201393
24.64093878165107,0.18546739709964086,-18.20401478465865
5.78786162627281,0.119681981061268,5.2266038171452545
0.22877153169808193,0.1363684882625994,16.435227235013993
-1.8851287126334206,0.1768133199445549,-94.93991505170735
5.912184434868561,0.22366809761461975,-133.92156318046779
-13.817626398977104,0.1987806775645671,77.99419398421476
-0.8672031548645616,0.18966288730688002,72.59021441459875
18.71384668319035,0.18911513997606783,-35.22612066724843
-7.4409746585844685,0.24868577444692144,-154.64226721575153
20.717752468385704,0.18301562366292878,-30.10756021383007
-20.793365938609846,0.17581585262857613,92.47712681378455
26.387332640265775,0.17320835897166525,62.456614646336874
50.751456920847744,0.238884516175898,-30.681100104902303
34.00742861852993,0.25907550404245855,38.80684319209974
24.541508086515385,0.18541648043719142,35.68858771545118
-15.527795764124122,0.2693855734592079,21.896226748971895
-15.726834943531554,0.14365550739394387,-48.01228313412537
13.465762473546514,0.17371222300633785,110.0580119785604
-10.25049949230029,0.13593841696262593,-56.54878949648765
-31.074370013481996,0.21815669767866802,-90.26142572108074
35.239158519873435,0.23005321186295363,-79.6104103362396
12.737386501848047,0.21707270549654747,-16.247601723632016
14.451242419261842,0.2601229761585965,-9.334503313686001
8.224103644792192,0.11541160918784388,-21.082974307926317
-25.47991116372755,0.20558742656150047,-46.26664736841219
-24.427965531592143,0.15767214678249009,90.31048158932792
-9.475416751362161,0.09959070347923649,-65.21615841324335
5.045004003931269,0.10719219834274724,-91.0706030692352
-23.98301100942017,0.17648635495004983,-67.61383881936011
-0.9435014838736762,0.10235787326778167,-156.71704521352265
2.4019297347182724,0.19462224346426113,-61.010093106788496
-6.914244737060612,0.1378740638303248,-205.4603479149443
-9.758382246766853,0.1885855336901351,-143.18628948596952
32.34762470941242,0.1110612109031332,83.40650814680302
20.474340140384086,0.28955132932870525,85.36592291787214
-28.437485542511013,0.22870873277123227,-24.70046836296964
-10.698847256157881,0.2069783400597311,-28.594568468847704
17.442661950258213,0.2821303983702316,15.691363821971732
-15.105405597549492,0.12849653138778205,161.2893276034977
-7.259260685992212,0.12676404730040794,-25.546852938477326
-18.439668459541963,0.16453174134863166,73.01808056014036
-10.949190656451597,0.22495400707692353,28.32701754930428
-29.519993554035366,0.23481585350358358,118.38552911869841
-18.965951697665023,0.22813554979582557,39.56999723137587
-3.358019259551976,0.2113976157389058,90.58806389643802
11.558760172438738,0.2235273632012175,-112.96965791960949
1.6776519159603274,0.1766998464995185,53.58268758793927
-0.05254713057549458,0.3006761778605749,5.254615551638377
37.75573399168759,0.2070183491634094,-163.3810110174331
24.203487573601066,0.2958708720099489,-23.208677805162132
23.96404930609899,0.17375292907547568,34.95114175128894
-0.43421546931890476,0.24338904526845195,73.06044275326266
-15.0532582015769,0.19702354623456986,32.18333436452704
16.033942466139376,0.18911319288072537,17.960119876536787
1.1244536111514,0.1380121532349823,23.715953826847947
13.409817883732877,0.16025958180402639,210.65994121060285
6.4357217250215975,0.20793314915029804,-71.83866436230282
-20.422185170285662,0.19229574769442226,-207.63263665537698
-24.24607942806691,0.16703229824466026,42.2728347669897
-9.713300487750118,0.16422744044687307,11.628748509437674
-10.418967822157432,0.22966050786601003,-200.6316838992681
-26.233122776906022,0.25210927015872986,-21.729926437404405
3.8134183116171094,0.28627815554829605,-34.81392561311088
11.30697458186014,0.23838580282602168,92.5377115530457
-30.683553056223253,0.25216367233162573,2.3056367293980204
0.5889190175930339,0.26338702196247094,5.387373282260887
-11.976806141839571,0.18404371166835223,8.649867612287053
-35.588767395131036,0.29988778985307674,-67.60363773210737
19.566706712969815,0.16768753912392323,14.694318578519622
18.709844056594843,0.18561880635553937,117.472551364397
-22.264282201948834,0.2441448478162276,4.9991121619900305
-11.861195052077381,0.17648878433242607,-99.62860219712304
1.5929190551151553,0.17586584267689823,104.66205550977709
-2.539982370331531,0.19481234868447297,-12.670020661191938
-8.131680679356176,0.1846466304745316,-56.89799730441762
-26.453513788051517,0.1339985939084554,-27.048219273632867
15.148653706447725,0.2455754565641342,79.28187831100345
18.880602775712095,0.24601020793849226,-126.9807102322259
2.3928747905771246,0.1486077048351468,66.3189151849744
11.568298639881718,0.295478082479581,-89.48345659027683
-3.5333185427256297,0.25740672783536295,-58.275501527375106
7.319677929907197,0.07741807562683285,104.3105524382272
12.067988476664688,0.1586843361350466,-130.18962578890753
25.033495039707155,0.18971660991893016,-56.02062287708415
-0.8974518211292108,0.24033382629434213,-25.324031979454297
-5.1057341255679445,0.2722862858600148,-91.57692963524379
17.04897327560479,0.20082763070390677,95.83785387130389
13.39669714084999,0.1778046949485156,75.98755026290232
6.911777389550555,0.1832765284919828,24.00218889871421
-26.12561136470674,0.2070605990637089,-193.45480875249646
-21.648377490626167,0.31372420492895675,140.1651966165807
-22.57511325177824,0.19522124791451506,-104.38610847321867
-43.35171895687615,0.263917451849279,-201.56398473738716
7.338813351700551,0.2441245103562697,67.57602896745647
17.457002930066142,0.1638635720134939,43.38547101728884
-3.682808406412384,0.19116988037004798,-58.917194498763635
28.670767854209096,0.13196026466941135,-126.73426019998291
-22.763102523212666,0.13424239912759778,-0.5390540935012874
21.91564862366619,0.2061847839688116,-99.34651968593896
5.548649085105923,0.24043459975880568,-21.48357654415475
-4.826296763963944,0.2255952494436883,208.5529871773832
10.07078683808892,0.2065641853673586,100.43265708823037
0.289376919895631,0.20089138740172421,-11.58307789235185
5.539866738721667,0.1542180673308535,-11.668412514937023
4.553021494034101,0.16291021934478814,145.27631520292604
14.24534844935083,0.25184150727322524,-6.566881486556158
43.729744068940036,0.1613236915851561,-79.4189516108757
12.356827939595297,0.19588257413559293,90.94727917866499
-34.497073881448614,0.2238292347541685,240.34868177512436
5.978235864321317,0.1566446023122309,-100.30807671222534
-1.6282964784365574,0.2267059690951021,-74.4252096584299
6.131604604290556,0.17802818148052266,-5.472742687096225
-14.374003138838136,0.24304933127444256,84.61889153130932
-15.701632812221117,0.29382554757436546,38.97471000719586
8.306438935840848,0.21993006120274594,-108.9148767940867
-3.722269613230347,0.32159149747676097,-30.644684782450632
29.540601637413744,0.19006431707062763,-25.163587897684092
47.84491082321089,0.19769838490541997,-136.08804025129527
11.977734259348674,0.1635856565862378,-61.284371870996345
0.18763371494670303,0.25632599969636605,107.95140962954186
9.574214932549987,0.16342889165533858,49.985812073800794
-14.493350380033778,0.16319262780817484,43.22856517842866
18.665284936187078,0.29749876584464346,131.92988754876856
-47.287203877688036,0.1848637799747742,41.349132120709314
-13.745651017109505,0.17390262489532665,185.93393292369805
-32.58286643018164,0.2419804191522403,74.85091458192764
-16.74819327899361,0.1305493493018679,15.960270512596624
-3.7528106558972008,0.17420613478486277,17.210657803913612
4.9770919463034025,0.2249381488376587,192.2298003361932
-6.464618220752665,0.18583132557718557,4.989904816102906
-18.39605230909761,0.22704611662680718,-61.43686998516691
-23.50490820997188,0.1337053070737665,-113.36021108069173
16.976294172487925,0.1903050472869894,-34.27116795781234
9.318318923529116,0.2047585002380711,-9.080055234260916
37.64684460896322,0.1767898070773167,-146.66066278206293
-9.45654042095793,0.27677794204916895,39.673323405099495
-37.01728012372811,0.19492107465302402,-17.198668766969394
18.106328058949792,0.19242695817326738,-26.641344702664764
12.09788875600041,0.19296424973157475,-13.165069503537383
-49.80959697384259,0.12427583616645815,-146.43908040841248
11.677029408493802,0.1808781632795093,114.8144946654403
-19.57401715882091,0.17832504932009563,112.16710231261469
-27.81272790933648,0.1903765129395774,-51.42046199223953
-6.415316162889343,0.11331558192689403,159.10845689664905
17.447957261228574,0.1949212136282165,-135.3442528481942
-21.36539440733437,0.24056512684042314,81.2778472368507
8.549378747410543,0.3005113687032486,98.07227577565409
10.726549009726916,0.21890039601124392,-6.248062900941227
-20.25201867458946,0.21083764465725396,-14.098262290555171
-17.58238704683787,0.20486080345403873,51.62803703274521
3.7590305619223727,0.31205402346972816,221.80818288569867
-0.024725717828946246,0.18958861138715438,-127.50009687200183
-2.988928686833825,0.14477762466063798,-66.55154035636663
11.149391006034504,0.07176545133707882,-157.44251601273322
-18.56630585087039,0.22340420517972384,56.754938515204
7.750641809349394,0.229845370510269,60.28574742359007
19.607452624982336,0.14994665462679402,-23.184912457520152
0.1970851032978258,0.16930280757794708,-90.14855527028975
30.136844120986094,0.25036684150631555,-54.04207795954255
12.662340701155086,0.2533957978476334,-14.590610792127084
20.113027231462752,0.25408874132344583,57.827360599163946
14.245735122079239,0.17472201998202602,41.82045888365475
-11.34511669679592,0.1541907930314748,63.51048718214347
-1.0854507200172552,0.19171552616152318,150.96478086432612
20.498252228884724,0.16566911457941555,-83.0205899729938
-21.912399002742763,0.28042303783830447,95.98037529600404
-43.22213518119514,0.19693356341987747,118.37559255224947
5.316778141267161,0.2002129542434734,97.94915983009413
13.756982688562836,0.21555524384090755,289.14190836244205
-41.880756637244545,0.238974580529102,-172.59638892605247
-0.0716764697994138,0.19074318842263754,186.33494145620395
10.747961876112175,0.17165107749214673,-213.99698006218918
44.68376106889477,0.15409647207627786,-94.47762787634076
-4.918020848678243,0.18305304551657722,48.647467828589605
-20.365624749470403,0.2287807979684118,-149.24730025927283
-14.034721436286349,0.18546214882640383,58.51479582262918
-52.74466081938347,0.18147190928583215,96.64730471146447
-15.053212676697012,0.20186560457944794,-49.84407325201824
-41.441078311079536,0.11634167674889732,168.78013622937516
26.83746735855547,0.19391379834966133,91.40048267841287
5.757739569643218,0.1585721488083739,-19.752159122442215
32.94041672675537,0.24078560317391381,-21.604898940418487
-27.69656049360462,0.22885066722483258,75.88692951620544
9.716757585372209,0.1823024212565268,-46.55883009341896
17.877529734194646,0.20499549114063556,-49.06834528609719
-27.017435673142764,0.19865517698933113,-84.73597240372987
12.233639573191502,0.15180201362821358,-22.481748514067267
18.284179747323307,0.16507228648047828,-0.5959326475355204
30.693996537524875,0.09625597352312672,2.9314798767200463
-8.990366609737144,0.13075198500511775,-112.15993752538796
-0.5077118395397027,0.04853965923860759,26.713598985774773
14.25499449191076,0.2657758806062343,-113.1259110889349
28.01001575900773,0.17844390667671622,-110.73608797944061
-19.252865437078533,0.1786263507315506,-99.37643873769963
18.32938351828004,0.2742989318982379,104.51426325048637
38.097128969758714,0.2833077943061987,-119.90322227839255
-3.2115329427537915,0.18623206061101877,95.9514850251802
10.482707342097001,0.34377632376505907,-113.2090329597397
17.887710537729635,0.16772031785298175,-28.3110814875752
-16.87130587215022,0.14110172393654205,43.324905018276496
6.694116607353542,0.20467018746768303,8.058914936368407
17.255351174708224,0.2012186784445297,49.86299066785761
-1.1032600600331774,0.17842322554068382,-24.902288912134125
4.448957735771468,0.27143257954526495,125.14503778934262
-46.47215703644294,0.18326509600543842,99.22649803896783
-9.984867108649006,0.1597509265502593,72.63678942901737
-2.539801698001949,0.26494998895377203,163.64408991492485
-18.104307750091234,0.13372033726301757,-37.5702492067097
23.84314051080743,0.20822568901429253,83.66796026574931
-11.03896480949919,0.20588845017694996,229.4960595552866
-7.62616635440806,0.14742076351488817,5.575943169744157
0.3920509478296231,0.19833467223063855,16.59416474044331
-35.41197901298049,0.2379838557593653,-41.70550692211032
1.3857153743723365,0.1326321840755792,-122.36789958088056
26.169750488666917,0.10942812061608648,-52.43200074797908
-0.8471079133744424,0.19839077618153386,-86.0491912912299
23.51551936476953,0.20246975438854312,4.503919562366338
-0.7657221309208748,0.24844327039856687,101.98918596901865
3.6302143368096584,0.2215132521974768,65.92665083329095
-3.8460587662595174,0.2028733788337009,56.940079490095016
-21.454929767807393,0.22081099280605035,-26.62335094953743
31.229988232151676,0.21886132337190253,-156.25045577416637
29.073713601957433,0.21775545030774543,168.83170430109803
-44.02049621973636,0.21728769676193715,85.27689260781102
-11.807927823932147,0.1617248110378298,-42.9557545662785
25.128652920849337,0.2423702564251216,170.7929817982586
-12.64986942983114,0.18855948453109342,-44.51151361706015
7.608828690823392,0.16965773591099764,-74.72994181523383
3.8635451065194175,0.2718724400827182,-55.03146161839132
8.215828769828411,0.2088157084687339,88.1057647554557
13.562053126471461,0.21046115474837795,64.30220686494363
-18.169194571664352,0.2234268595175799,36.133585194668136
-14.92948096536441,0.13077141980067683,100.40092758809374
-0.3112288943759487,0.05107153600163353,-167.08592935093816
-29.43776502571797,0.20324094569457307,-36.12470693435959
-4.554753769260855,0.24882308503470238,181.11821854686062
24.666776717966506,0.2206245719501435,49.971233019299525
-2.3524592041057764,0.16744474294252137,-67.9129521977601
-4.805577420509532,0.19507321688166246,99.52580277903338
-12.932456364245745,0.19335306629051197,-76.16391654533136
-8.205757276879131,0.2287776930410378,-152.61356706937067
-12.256147332975623,0.1881457182294638,-63.433909103072494
-10.678712616560144,0.2122009895327741,21.128811741404455
17.39959795826007,0.18613364443983585,-184.56102133534182
12.340353338513882,0.10252173412680297,13.143362727832331
-16.382799631286904,0.2198244077887454,-189.62595552057525
-24.079559584178774,0.204736936399903,109.07826566456946
22.21365089910076,0.30330982603535583,103.86142714188695
5.730135983020856,0.2387128509681009,-15.664552150976743
-17.394897631876468,0.17823483514162958,182.83830003021615
43.92285226665928,0.19588840994414847,82.93166985135537
-16.138709896402258,0.2191766266692257,46.940028292083475
-6.802901159199507,0.21317270042239708,-64.2568120738063
-3.5950341476283727,0.2100051285173659,37.62777673081558
-6.1892657742125055,0.23836516151644258,80.14426878869712
-14.533230015844962,0.18012131548055033,117.00226223818512
12.944526373403223,0.16368635129941794,4.600363075192545
-20.295084160923793,0.17250191110638158,54.518892950490596
-5.730205145351146,0.18547859795304528,-131.49715874616388
-32.8730202802906,0.1420301880307201,165.27044525973372
-32.76359667329752,0.20216366482662249,118.78837994879463
-13.434877459120784,0.23869556758343582,-2.4091474558531645
18.760800230901012,0.24747899058469,-1.7541922069793305
20.107510837442497,0.32668918785445666,-49.4747643152447
-18.83294212986054,0.2542757948212657,-5.663335466150889
36.1939579423884,0.27028160647737226,-75.74999026205006
23.799936956746347,0.20177979853484335,-180.35866269766612
-15.928757300581559,0.08881784342595743,-36.138223635160635
8.982436169255333,0.17438463226599615,-140.26201051910968
-0.9165044535838756,0.1454505227578347,10.41474794339085
-39.147948111376316,0.22576086915213045,-85.21243776578336
15.753200866093584,0.1924703691410559,26.826830543432184
-0.1437358974821896,0.1476331431062294,-62.14498748766493
-12.499906671963911,0.21352124316162752,128.13635759392943
-36.07194834483111,0.22518807934328008,98.22280839592091
3.1962109192026484,0.16162116227955658,8.333813946091041
-23.323297040724754,0.08452746474943867,-4.528028178562616
-7.917541665345266,0.23198451556146013,-91.79338672703163
13.210577206123466,0.2373717087313617,26.166192810180032
0.9584198705156963,0.21731868461907833,-26.792603217376644
-13.241519261438174,0.1422825406661899,-117.13510524322577
-39.591069195427686,0.15258074890739154,-154.74075066644576
-17.16264240065001,0.1453905976975088,-123.64445051303032
4.210955566263049,0.2279477634807313,-8.444473435942347
21.805973292569863,0.19217242835887893,117.28865868605513
0.45272643313156585,0.1448349130633439,-20.575566631292197
5.314053835962226,0.15180524433487658,10.433045855184456
-7.174272068837539,0.25012175514276297,97.45288777375828
16.993717666079988,0.22460609924502967,92.89832096993194
-24.28625653206682,0.2081824310453377,-76.70047323606633
-18.188825546451405,0.252129588492739,-27.434817823021255
2.38271818177665,0.1681605427333281,110.14717494288469
-16.148371884301824,0.17981556488017933,83.62646736704721
-42.75353645359698,0.2105467391990753,-93.76468733224723
29.944222937148382,0.14576034313607045,69.34103785328392
37.88055557612858,0.13916520508593172,-81.73298147174835
-17.6402185426381,0.1820901093676979,-50.09746968278434
12.038091992714879,0.1928142942010141,75.63368520973455
-37.374764033628324,0.26026772846969576,-19.10818994400248
-2.1428179868540824,0.1818153603276571,-116.44668938993203
6.727746640400785,0.16890701571524613,117.4390151546651
11.93888977594018,0.1656209585564118,-88.25615540284095
-17.328360064770564,0.23619513541578122,-133.50081922375313
11.587846416377879,0.13213266974231855,4.073863372073608
-14.298429671784756,0.2057271812656624,3.5622337910236377
20.271706908098558,0.17700119572346584,10.503360856746879
-8.947820324333968,0.14445879138870318,-13.152502672896313
20.84463447452212,0.22633854892809785,148.3541933404583
-19.39820263854606,0.2168047859261347,-298.87779499476125
7.604517056067431,0.17400046769687108,43.0171829865123
-4.592333966602219,0.18893093062715538,12.333597526493657
-25.1333150579449,0.18551328331010514,-160.1042971089383
26.936523389669777,0.11519419792314542,72.78720722535807
-32.783073966491905,0.17434222527910473,-164.13076576592616
4.277679121955692,0.14984320828642453,31.625908059173096
4.072277898692155,0.1782333620499403,-48.69764011372062
-7.404460629847225,0.24735445951370919,-194.24684149985242
-17.69764980786572,0.2710385433312316,30.407740707579993
16.903706235567853,0.19909189967431945,-66.14083310847457
-8.290325497386643,0.15192055903009538,-141.1058254569764
1.2028465279002338,0.18163148313854002,-123.82677823308454
-11.403202137637656,0.19020867004528177,98.0327549093127
-13.753763474139191,0.16393110522803167,34.407315090991744
-11.763193639113421,0.12760810875444545,-6.041627429109656
3.673283774380179,0.20784147258446217,48.639587465469894
37.105010347410015,0.21960619132409548,29.04661138765443
23.89747086412506,0.1688685052700778,-43.84665445404924
-7.121953645719959,0.17923036668503692,-17.12585658894917
29.77751822827979,0.2406177608776319,16.603484571153214
35.05319095245845,0.27486273951649964,-231.483536420318
-0.39421983697855983,0.15318178092643314,97.37159195609253
-31.01111991321289,0.12319500101631357,183.89625045457154
-13.048030496872276,0.1638500724960415,20.48546008610823
10.719342759177476,0.20369145472547506,-0.5890238632948549
-8.852750556846482,0.11165850312081099,-6.341697770590335
-12.21465121201563,0.28351747717909803,-47.70219897190382
-24.427566723199135,0.1335386266626846,86.55349098104227
-33.59720828070779,0.23991574152232936,134.87356966079435
9.42155515191233,0.13383041063232548,-115.69543992396054
-6.99352430055626,0.18763043257300543,-115.22275396984783
15.896194657151215,0.19431312389977717,-116.17369483057456
33.57273278099441,0.2488334870173283,-32.07571006191905
13.99325684886759,0.24887662565573127,57.105659075575254
-34.1721917878202,0.27765529226356683,-9.83846284830563
-5.565229393569668,0.182460520363306,-61.07884445164975
-9.974302575962549,0.29495737837433006,-71.70903320396094
10.094260829592834,0.26040633588842665,18.22772461671483
-4.642262400400494,0.21269857264480452,157.045548063046
-4.004137985812093,0.20345172629763789,78.12250914488384
21.696233577864668,0.24775453866273228,-41.50628099051878
-23.84745661754902,0.27984424078202946,14.459294398513531
5.38278222827689,0.21586407970130486,70.26748831300844
-16.81389992818761,0.2356200958969521,122.22411681982801
-30.82095216726934,0.1440369533657681,116.42022556230643
3.2047152972535082,0.15010356180484163,30.285714891171967
17.05078725359382,0.13212316461624307,-88.80782959661182
-0.44635743258899124,0.26625654547775257,-101.91641938527789
1.7549719332149656,0.23133907755527197,-76.45513284828311
3.4043662997702073,0.18330911675396971,309.85912624771487
41.0773067563992,0.19029796881348848,-39.68930965689268
28.579431569517823,0.14951243554407853,154.5532284211341
-19.648279254311202,0.21270710756327177,30.560418293517376
0.9980061008084007,0.182630156852134,-66.8277788838508
-18.535115984272423,0.1882409821100573,-50.77193793871291
-2.293281447879484,0.2196368223745233,20.99624628806163
7.58806771710078,0.20707828725296354,-155.63002219212774
-18.253405202264283,0.18744060584584227,-7.267060347998315
-26.450766507775604,0.17897479943987354,-38.02267349498806
22.55706649796928,0.199855887932138,-44.371713933007555
21.38864885802874,0.2233842574493808,-32.90239878611098
-3.3641998181973505,0.21164764211667889,-111.13801748795997
-0.9907069502481312,0.11679435992304682,-24.140432807372676
36.8999683968724,0.10682405751302405,-10.241237862943374
-29.829605375192006,0.19652717718918386,-63.84886312875753
-22.094595496561187,0.195976752163085,-152.45828040195855
-5.977235691569089,0.15129304265699242,-178.4422922439859
9.314246876821183,0.14355428719726135,-36.433659432513195
-1.486280769528148,0.29234516484565054,102.53226968712461
-12.060929716633959,0.2936905798589871,66.84599049514512
3.4843983855722978,0.20613299390519604,54.7995628251036
9.161283351052225,0.3232441048444942,-12.626623685407218
-10.655264877629676,0.2013901535209167,-46.11512968374521
-41.40605189044712,0.2984057249540592,12.211391456478921
-21.17793786704283,0.14847021326033952,132.3944502411518
4.8505462762609275,0.12865760450284192,-4.994119139808513
5.835816298748487,0.18521873266554445,57.516512279182486
-5.114941687929495,0.19081965845714843,20.08600434936664
-2.730320618673902,0.14977089920966768,63.77144827077874
4.564901547546282,0.1608851487756966,-102.64167738945179
-5.186015716219172,0.11353324921668141,-118.96419944441077
-37.945240447204725,0.2001983877607877,223.49354548020227
33.48843163656725,0.2481478486221446,112.52617698354224
6.735701593480216,0.15646901434337246,97.30390615294823
-2.748713852707354,0.16127844601891567,-24.90663078425614
44.31661828810033,0.13385917509853212,199.56865079401197
0.16786255464894953,0.16830586459032976,15.592843391371245
30.94624872823468,0.20766673855958448,136.7145859802172
14.694103921526818,0.23551339083690284,-39.650702295632875
-1.5140244071694098,0.21905430853449015,61.359440710746995
36.071894954776845,0.20846107336600128,-35.35918477497943
-20.607201980038276,0.20939758486611257,166.28658480295482
-18.870213787006215,0.22752568862218583,-86.9160553099185
-9.067382657908613,0.2199304080932941,125.26396501729474
-1.624445248316042,0.16722632657899714,-112.0048531654081
20.56171014458943,0.17180647150030295,-183.5633202920077
-31.65017552184628,0.19084987275907925,32.55673723457862
4.643682247529837,0.2550950268400114,195.1584821826697
-33.23952307212255,0.1894827239578249,101.2986514490271
-17.17557362821645,0.21145618164833752,96.21863940917194
21.86878091058079,0.212315654385613,-147.5086644404132
-14.256989429962035,0.15824868340316123,-143.14942949702697
28.118177578397358,0.18591821950769152,-63.47989432776183
23.37111449613827,0.2569293943103275,-83.93598186454473
-20.7093108304429,0.22415303859706812,350.4595243822581
-12.302594987925822,0.22589771612514845,2.225997562391726
-0.7244315103910202,0.21805204676925932,20.768312092758674
-12.040473962068653,0.23007153380542694,37.9046661202011
-2.8161697052093104,0.2739494348030406,97.63456989567723
14.432930439896058,0.20235616587850877,126.9998577567208
3.97183463571198,0.29224337270511447,-239.32052982500971
0.0014755379043022375,0.2201226836531813,144.34190629676885
-9.17078556857917,0.19349525675593854,29.909182129392747
7.152155594756353,0.23905706925726622,68.65596012508124
-7.1315544065162815,0.1919144803755618,38.192692891062855
18.071828419716223,0.08155887306791723,0.210565485179664
24.572962846573137,0.21374454011283692,46.132685540082356
11.142196330221466,0.27352887378255863,-90.76105373827214
4.098628271485385,0.1499328598992497,-77.341591965981
-3.187442505803271,0.23756538093820279,39.6501802920949
17.7411909985354,0.22124307851231942,51.6243117725414
-13.705263352436244,0.13714613907079937,176.94452713960226
-28.193554495519955,0.20964732455894095,-115.28047731123398
-4.1702021635354685,0.14681187204503754,126.03287170541681
-14.135348003980026,0.22773600404399275,-8.998058690637642
29.247005973117027,0.25314553085188046,-31.005593365042415
24.829382333636495,0.17789656308779073,-38.27665983826976
69.70516274460957,0.22528033170556547,-66.43487247438152
-4.778902270328725,0.23539106616336256,43.3404405910788
29.676177017643276,0.21235706907632468,152.62240352917402
-0.7823941620588603,0.20021287312308117,-52.86559577612454
-19.778927016765543,0.17078646846824191,-4.3316538701641285
16.508193653144552,0.23122653573157234,76.9369941645955
-16.972679224990515,0.18519150201014548,80.24219319730848
-8.583108570438233,0.15536614222048425,-114.89153636886628
24.051237274561533,0.18132970608855076,5.4216920448762185
-27.470197037100977,0.24989354936286393,35.3193591978053
-43.87825325208054,0.15192998137232308,34.17242311661657
14.193131021258882,0.2003057075100203,-233.31566562564942
12.533185493138186,0.1460274471966706,-10.327639789488451
-13.208560953125401,0.09968722124634083,-34.460303466601715
16.999432453475393,0.18105114903786043,-68.34091859053892
-5.973090444934627,0.17471856631437166,98.4531540792283
-19.821202802130856,0.20673232682531095,2.0286796074206004
-16.7823880768062,0.2035170882099428,34.14112565792783
10.371323511589281,0.2184658921498024,62.69882480005028
-0.9305210444884405,0.21858060686391145,-4.819667267011341
10.93860748420122,0.22904647152619453,100.45920306714405
27.104455868566095,0.19633746926749288,-35.95989205788879
-0.2939144521419486,0.18684574719463054,-163.13931754783093
-3.955162961176202,0.1901706017098645,164.244091647607
1.3613458039620232,0.14149821136078938,-135.70409854629523
12.872550366987728,0.22639632956698408,-158.30479141383836
23.344896864028904,0.18509603303703837,-47.25108880930168
10.959476516764155,0.2386418764903527,102.5991651271947
4.434651763166632,0.26925061852273297,-36.69697668494833
-7.580062287624372,0.2796786701168341,35.91131946612257
-20.546227430493197,0.20926918200892308,32.81872490364252
-7.479708929610843,0.2056218912681802,-1.5682091615250198
-16.971083728557993,0.19252564363822233,-29.378980172472957
-14.628494861364281,0.18715325868641422,122.83188838866583
1.7289855763054043,0.17578077243807408,-24.483389277742276
27.19893470486561,0.11130817795309621,-190.55918388602933
3.3758105024502916,0.16652069500358688,173.40588248049622
-5.834962235147696,0.19163018213633873,-42.93546776530186
3.157101063835589,0.21182033284595217,223.12121773469676
-3.87663889141796,0.23601879897430766,242.11553530299193
-20.596976319284064,0.2169652298020116,-71.3465997610014
-21.634367841630603,0.23725372833526617,126.53400485265516
3.8833992617037434,0.20442259670062204,-9.356671633051732
-9.051835611448212,0.1834177697440024,-54.80206114106969
15.362008858852892,0.1206898890363436,28.38641957465121
7.458122939314955,0.15435321060872553,-40.62252936485393
-29.508819452550835,0.1809156814768092,-103.92350176672932
2.9726533913479614,0.17891237964838055,-13.644900201564553
-23.34900586982195,0.12604195651356853,-42.54819644168328
7.4532385263721785,0.17203104775792474,95.36311255226562
-15.709066391858855,0.20819071290882257,-5.116414558875383
-21.770508798313127,0.18565004265584983,-135.0347410793303
8.47106356924005,0.2453966498990004,70.84517091730007
11.901894886019607,0.2358352815300417,65.48604959593753
-21.20134418320773,0.15013091083716168,102.4330810015044
12.933132945552106,0.25126148112147534,180.13423017837488
-21.107816929802013,0.19527284628887717,-2.179027988674832
-4.306713525194272,0.126406978226817,-59.39618286996622
-5.999548991067724,0.15889567980062608,-62.68975059213708
-8.894620428218078,0.21358744547832687,-29.767721741528273
-20.95639658132506,0.23433906383489844,18.795638592367602
-23.10855498048292,0.14945085911657235,-166.04643526414353
46.71756942388649,0.241554420117274,73.17814272661582
17.232239855360312,0.18673646444443845,-167.19370598391842
-10.99700434963225,0.16345054136171983,77.0746003134592
16.800385296208958,0.18591589949821383,56.044430156455896
-11.534436318793318,0.16099438123874446,-125.81075087018962
-11.367020911276136,0.2203436859581943,33.91149991906619
39.38561757878251,0.20821115526733847,59.710395350221546
-14.858561700459322,0.23785097563325622,-42.011931837199626
17.10747478438618,0.15881529318734292,-29.86976804829296
-9.109084403724914,0.23186955353012567,41.36816206812075
24.57465470714451,0.21516546194336592,-31.57844458663498
7.307102799859148,0.2130851482201448,-5.373118846102217
30.62959586998765,0.2123435560238754,53.09478275588106
-21.25666075642164,0.1803140772249081,-50.300522559816066
5.819024545976562,0.2667603692284888,-54.362048491471235
-8.324882971575867,0.28257464388286535,-105.05686378145505
13.239953499392051,0.2182448013272628,63.83145566536158
7.491260691835331,0.24020214225878356,235.85425676810726
27.046365515692614,0.15111994366182646,-116.16344118314359
6.439951454257936,0.1903969244820166,46.68509706754327
-29.722657038824593,0.21095438053565113,71.82049189730351
-13.314444934670593,0.29610473281653676,-33.932410185071014
34.46511410833784,0.20374850762254595,-86.00119481723955
-3.544877614141172,0.1454507683184655,16.774438395521578
18.285169227332034,0.22597085799867972,-78.62305306438927
-18.516432378174827,0.14643331514787622,39.58457109643834
17.278105479665445,0.24423059876242928,-142.98709038704624
-38.00500765676931,0.33395979805643494,45.32191153009944
-6.120534145832936,0.23310230132340198,-270.67120207981304
-13.881474915302665,0.23570888354825473,-134.5122916343566
30.08473925869223,0.27485295197955467,-18.151840952241294
36.5137166821315,0.20431086567163495,-124.99944314158698
21.25418279369177,0.25356557733100316,1.462660797274422
-1.3042962565071814,0.1365262796831681,82.6241260495428
37.690125740273,0.15477847581804585,130.49068764894338
12.14166162718698,0.2763342337561024,-25.247146344863854
32.8906692891328,0.19911527577477153,-138.79948765707718
-0.4894282015817021,0.21494710967146352,19.543278092727114
18.17770433486766,0.13202723161462848,-45.24680624842899
0.7201133739419161,0.23807794301482613,170.9206377970088
25.652590065479682,0.20998820058588324,-134.43991595262906
-12.700283424919839,0.13622119095390356,155.18872861011286
-63.872550041078846,0.25520554056752753,49.82341922506583
14.843315269212221,0.21552492900468231,115.69233780487636
2.619271052963898,0.17619667901484276,-30.801754538773114
-7.828294578834697,0.1438488819765322,5.613478156270162
-8.075925295300584,0.23445086912571758,111.86640807939237
-12.404181502859418,0.10361003415119294,69.23105794313729
-4.684338138178391,0.21432196938318257,173.35156968460709
31.363372178098953,0.20390366434073623,161.5446033321515
-6.1789680073157545,0.14113022905549658,11.739025278296527
-8.737389662565043,0.202831438555901,68.50564951280936
-24.04317093065469,0.09629557111308447,-127.97438655992349
44.04248130173835,0.2129644963112948,16.145211354112533
-14.705735573428079,0.3280367821665794,72.30048702784319
-28.892772014809726,0.15312778196013002,40.11599252462534
24.85932816493729,0.2094124051629253,-1.0634646439186122
-16.161545876291555,0.26976788954920194,81.36364202263337
-5.591395932973095,0.11367961821532217,112.91660820776761
3.8872386864223425,0.2146431251173878,242.55024520487729
9.06092724292398,0.13664537807484323,110.5351168162876
7.519570527177467,0.30803065031492033,-24.980656219369692
-3.7593985338881613,0.20400813129148077,164.31565257194634
-10.122510952598825,0.21934613798291056,-180.82410615937215
4.3618174881374925,0.20071794894669004,191.43567731138992
-17.595968919226113,0.17038238398955413,75.22786126192898
4.342378452341326,0.1977927722462243,-17.22253818202352
-0.4110504903289187,0.13297290017952862,50.768553982651596
1.061619534848555,0.232923575864726,173.72978274453118
1.8750721569042172,0.22810804507856838,-152.03540660882
-6.1352790065618725,0.24440656670151456,203.45756200156688
-6.547427640604077,0.21057203826191576,-38.48008306584443
39.513932543708535,0.24715407078671053,-17.660805164744726
-19.88965998725056,0.28314307460051413,144.99759725940848
-12.95777096684477,0.23136548360414286,21.344947261732784
-27.70905377033643,0.23512215319577906,9.702105706175043
29.256136582442473,0.22874699850563004,-39.87409992035256
-0.96830921110731,0.2264710004591335,58.91650718403405
71.99331919561332,0.20401349522473633,-0.14477817685718836
-3.9932770060256044,0.25956561439790055,106.88351779958364
36.920927311560945,0.11558656226580949,157.7229882636019
-0.8023449404435412,0.14396639526278618,32.85300408187693
12.066831625012513,0.10687989432953023,174.77040996552464
14.957253556315045,0.2946925072191202,-256.57208757042247
6.034043967418228,0.19881114688188162,75.9878685645356
-9.231516783158167,0.2571924225165376,111.92804538386918
-0.21725452408901805,0.14523191422553777,30.667689437611834
-29.285909960794854,0.1349113058470166,17.058388935418993
-20.044238001971433,0.22045958636537152,23.61572800676607
-3.040249367198124,0.20554474176030021,-36.63131463850504
19.88617531306285,0.17256464237270247,-76.4309548103106
-6.99716164146555,0.16444139516287842,40.81743496271735
-1.3917143348415963,0.2974731855469224,-55.10070866819009
27.516366799083208,0.2058502947837732,73.56052938891634
6.855680747293555,0.22829994285201635,-120.00725301598136
22.727974647672852,0.1556464423539725,-194.62675407768808
-18.658328703307255,0.1923802330884395,8.930957387777957
7.537979806398312,0.17257201395401436,-21.84288627179564
-12.974158919627497,0.2909927603715877,44.06740473581429
38.283581225517935,0.13738161665474385,87.20102149520163
13.823435406581075,0.019041796516926723,-51.57412093081679
-24.27042112780014,0.21178413324391804,-32.720310198298954
-38.73563470380054,0.21074147543440866,94.6871076672211
-54.416407341121406,0.08244044662700885,171.46522166419044
-4.8942044536517555,0.3008233727468923,89.60386293239753
6.792841313465949,0.29604191970273674,-70.4720958137037
-17.010971735209893,0.1717559079134524,13.250988174109319
-6.01248053099177,0.22313826963760985,-34.08938007802398
7.018099007387036,0.25195054161234526,-236.53232269900118
19.672972195714816,0.22117238962676805,9.799640996062132
38.936991461711806,0.15356078448623184,-19.336411748335255
