1.2372458370850807,63.35220547245149,0.1565679543821065
5.328913340449747,205.72191873000838,0.16660138987603113
-15.19273791212047,-27.745993590974127,0.19498602612157676
23.201060775704132,-216.6998600079399,0.11039163602942881
1.274340361163127,13.710810862803546,0.19545104337593322
6.233358526956016,100.55099892660122,0.15378275937510388
-19.529318573850524,-178.1585504014083,0.15250034715796085
30.55276329124014,-66.31527980372837,0.19581505594328566
-22.828216374949662,-66.1055812133614,0.3017477062681193
27.66615719250456,-128.54081588751401,0.0990322319168323
6.884213024293473,-9.604131741405988,0.17528560617766087
-3.326600419598511,-140.55401311532538,0.12956489788344788
-3.1285160451770673,9.270835330024688,0.13259461489961927
-21.17444881022822,-176.2046827741464,0.16905041935791598
10.793342659660592,-97.96359192559791,0.25419143271314926
-15.303099926748473,71.19040437820628,0.2959672438798787
6.299357212262916,13.799008395391379,0.1311276366345292
-6.876410562765947,-247.56830831280823,0.23759288912133625
7.885033079754261,194.3649546724567,0.19394779833526815
-14.708092105817332,-28.927640244099805,0.23546240015177278
19.85488796415342,53.71317936165795,0.2563104817343957
-38.80295499983125,-42.18714251287126,0.23106540935992717
-33.051570775159036,75.7973989395698,0.16021433950713262
5.2025999174849344,-96.67742910265177,0.1948447725627247
-3.1278629712768065,-68.49865476131353,0.21575324300023616
-6.673865624466233,-46.38131251330497,0.14378749869899793
-6.876556899002152,152.27831954713636,0.1512320571903581
9.03623661526103,111.37129677519779,0.1773542150730949
3.285667494890821,-142.04585694856033,0.18919686043467282
-44.64892140612844,76.9277946092033,0.2960500671473557
-10.03219087964846,3.995564784415753,0.20291154857558572
-32.05985739076939,101.70362449035215,0.2594306341067281
-18.18167183907677,-20.943314272820004,0.16434863385343873
-6.017783742690661,77.40197921628034,0.09300353741120196
-7.299238914005834,-12.568897673045681,0.24473727662764888
-25.818438192275543,136.76156342663995,0.1842229822354044
16.005431696922322,67.44735465785938,0.21095791855678547
30.204827908429557,28.798950607241203,0.19970924255711997
21.82602885343946,15.199281673470619,0.2164292416623428
9.910678844197946,51.55186062691077,0.19734962363358638
-5.944696119225309,172.06374457856134,0.22683676921031426
-17.328610423441177,65.93762121172004,0.1399969796565218
27.586529788490214,81.61116022979064,0.25449464250759973
7.62736139023988,168.15206420691493,0.14701176577744132
24.706317128424228,-34.88548471085197,0.17848690686176566
12.06003436063389,-41.47664021984298,0.20525333375442148
25.83843563240999,-148.3438893274008,0.14812650497165153
-20.56898172335764,181.52679531304094,0.17469227113783975
-22.49409766145459,3.224405184895181,0.20288053710445988
-14.772618110832616,19.58645586072026,0.15992870575998425
-15.040078202587184,131.34136502905125,0.22534594341703748
40.15364205212749,-254.48441465793806,0.2159538754356929
-0.18948978457830906,-61.638020099669774,0.16563510082554855
-26.98616592145589,72.80488705585019,0.20879131817737573
-30.5988239470565,-244.68987346108278,0.18229723691515415
37.205178870263516,-96.14865040967064,0.24773907452219304
-9.789882318673866,-102.79207028304003,0.29192837592573173
-17.0530578443169,87.53685925955656,0.2570963167053353
8.276146568730137,-30.266996303752062,0.25400958602425794
-21.692484458662086,91.30693719687564,0.24391035705606037
-16.954036514138934,-161.2520542261507,0.2595681427128117
11.465331261585863,108.11721571877908,0.15300464850234444
-48.533597069277775,0.8036833071802397,0.23265735497403364
-31.071180761026127,-160.1196806398427,0.24611285013874326
-5.232431518283943,-53.724485478813754,0.15989099128648335
16.290760976530958,-115.3339236210201,0.17175985929607288
-15.244918984707493,-83.97319814343795,0.2050304009441373
4.811729404647645,47.459596833513764,0.1284796680003384
-38.59709594806825,-134.52756589257677,0.19470897979232776
2.925073261743675,-9.37404174988262,0.28660841409810567
29.49662137198399,60.8331509313645,0.14816041408520778
31.660304242526593,-2.957506318469952,0.1340331535808344
-16.659458266947187,179.58771473622105,0.10540715240491187
-16.00583532818903,-3.7702762270795365,0.17106422349084655
-24.442426141270595,120.93605892658526,0.26775724581111937
-4.729285129677802,7.145808394351976,0.09882774916995485
12.468316489294828,-159.85188480093473,0.22337592181546023
11.441715781130517,11.196536329020816,0.19100735364636154
0.08184177493079377,-105.86383961689711,0.2767229254796123
19.35471097957937,-70.41824408010888,0.1327693920904897
-18.185045461863908,117.12883187733229,0.23180213648680886
-53.69875115389093,105.1564284963451,0.1971628508136621
36.06507742010044,-53.94402618907564,0.15369837548818438
20.86092663051712,-149.79924049122369,0.140989146097758
-39.69997439988431,46.552174145950254,0.1958395934841394
-7.878023677322155,-80.37235144056754,0.1941700263215048
-12.308891046573132,-190.27559335062526,0.20512946982753716
-4.730611489194734,-153.52252207564177,0.14001018613365707
-9.240756718078114,-174.7038362558606,0.23059399184111284
9.532823634445998,-12.281392992377915,0.15245855653311527
25.69348191169769,-78.80165301546491,0.20435912835768227
-21.308732125863983,21.680058698279694,0.1327652193899196
22.240027538265828,197.88757964550132,0.12157084131542406
12.55183785518125,67.07702284058948,0.16390548313866654
7.778162292710652,141.05818615614126,0.1826329614134428
8.732269720130088,-45.250845945455204,0.23137794614905466
-23.90509293800065,-119.35759643079224,0.2562951108675475
-10.437617789965918,19.615060242546235,0.17825257850006415
21.92866735152077,-72.22538836602003,0.26992630084989994
-5.733530269451083,-170.2449219583076,0.19853220342434763
0.30387220309437474,1.212884269764848,0.2506689717024492
-23.055665344038538,52.31360381511293,0.20438510893905482
-21.404124288275025,25.291114388481528,0.16835460087629678
8.013658217896628,-67.8328104631133,0.2220102285017873
4.173619424074607,19.67937181615259,0.2241008454866807
-24.081168003812277,25.375903464739462,0.16695997324752687
6.1155944970692495,-41.80635958223998,0.24229499436686447
4.889850581884697,55.037822700636085,0.20381307859490397
62.29891626645202,-17.147694779986807,0.20371136810818946
-6.309660942710803,-33.74453128151835,0.23478435016735494
42.81630966973548,87.2396757307165,0.16796212260222132
16.889304923310597,65.24142446775708,0.19200418236203326
18.147481417709955,18.662285814855313,0.21260526149489967
28.495710789885816,-178.1083523283534,0.2762889542419658
3.363401055177217,8.931402872544034,0.21140502485044724
5.214956851223352,-48.45875456812411,0.17421888654677628
46.879391162645774,-23.742933287566288,0.17573550911728944
29.667295965897026,161.81495939958364,0.17176989996920458
3.1552468337705983,57.09363356827504,0.17437948402144965
21.593625071249654,-60.46211032997636,0.19536358082931327
6.9372673335524215,42.143682435233714,0.2104328652156876
-6.072893420867063,131.22052654644756,0.20528801919923045
-33.03274797252914,175.24698193846703,0.1585237916959827
-49.984913654751935,-81.69630534809677,0.12464799732859645
9.952780305109862,-160.3046561097746,0.22470740200060996
33.073717408079716,131.06220809633942,0.15430991258628382
3.235780436920881,64.54544501188535,0.19422141634275983
31.92313026756718,-127.7784309531628,0.16233766349586964
-13.396992640745973,-36.23497526175836,0.21628785299995976
-6.333072061814673,47.3948929220911,0.2502811919603276
-1.4894134730184643,-49.95603100523171,0.28303485937993705
-28.483474196801374,-37.6806630742627,0.25296078681260314
2.6015870434785473,11.6027345971467,0.28168397350556496
28.750937518775288,116.56902252995529,0.18458063767229277
-15.939180070877288,-6.664489703126189,0.24437229487215567
-13.028615656753267,88.86737364659278,0.23198015365587055
26.423883979118173,-31.863206050145344,0.25271994682751475
-0.07578481881276644,-9.448763382852826,0.18611987643487435
-0.056660039702278356,201.57838697928253,0.226571287976993
20.51170708879522,156.11668498127014,0.23434764993473592
-14.978803647879568,-76.71189184701723,0.13107738605211383
-21.4317869199963,-86.07802318724347,0.20369185436550602
17.605193292345245,106.19271847095959,0.16813509075575622
19.837655050700395,-113.46538427626429,0.11474101154412669
26.708682300408263,-158.4495073193526,0.21830806255018992
3.673350441409791,9.037860729529676,0.17233889110468553
-6.045220131622351,89.54422966465292,0.17708280073227461
-7.883616445491511,-207.41311999657012,0.1258206987061704
-31.31629806648386,-163.74751853139227,0.15462567701706056
28.07152417160202,-54.944202521396136,0.11233684073342287
38.39092248492963,-115.26179671911277,0.14342006605882368
-18.63539274463771,97.98739505144353,0.21076940241955117
-4.748292750746846,59.39047708494748,0.20197859807989302
-8.154963007068334,-82.0667610220397,0.27169023593278196
-14.505031707894442,10.59664340722973,0.16413925267553753
-32.57709687530058,92.24378746617694,0.16289762194476248
-29.6038056808184,0.79646115565715,0.1888652362552506
-21.340625188712966,8.659422545945631,0.18664258539170936
1.7357207752882962,51.02982586951763,0.18451649565536113
-35.25442295103196,-32.85611970659158,0.15852216349693485
-23.446068312093736,-103.90947435467403,0.17311188195763352
-29.944115082778502,-293.7203961310304,0.1343889151956792
-21.99540705599891,33.61482416441386,0.20096231350836713
-29.935535516139446,-102.52202163749544,0.2810525331995799
4.537362752762998,141.57261166042875,0.20843824383633466
-18.535265925341836,-10.09777482858782,0.16182748642007583
1.3701815383896592,160.70540430327884,0.1520116276178667
-2.201077945316527,-66.7135909932743,0.19741076319361137
-1.1844374547259613,17.606459520313393,0.15928903808841108
-31.11242472238034,209.6559152952739,0.22001179556376707
2.358183603382555,28.215904452273875,0.2062979327602679
27.725048193815,32.754270898782146,0.13220823675079832
-0.489494717392765,36.126007241269384,0.15856903395065
2.410238099810805,-105.16766693622523,0.21902572490266378
1.0170042513594688,61.66352043675359,0.26408003588725143
11.966225424348378,41.47233422254439,0.2389021876652448
0.7801837930309619,-6.2118256332104185,0.19894553290056793
12.609998250757501,-90.55499160518022,0.2213601256571764
-3.8456787490951507,23.827925977737234,0.2599838181327745
14.371591075132981,50.1316828638243,0.1302808823581819
23.48306190526335,-92.74905969279105,0.1734325262658534
-12.504164752859168,-159.836550800794,0.16199992115648099
-23.323050929245923,-42.818396563118505,0.16180989554271763
-6.960641348685021,97.8040575221317,0.21105861537709986
23.87819698444047,10.61552177741089,0.16146850079976008
-32.32555963634886,-62.33816776783472,0.21536171501650866
17.966848978266007,-66.23378617857969,0.11620766720363634
-12.631662714649146,33.16711634612577,0.24723827090284625
13.472560634268213,23.526246101397152,0.27310344469911524
7.722209594045822,227.4416927799376,0.24451947003754687
6.956255788313301,33.82689094560102,0.20903687056296832
19.05889966380185,28.823194076455895,0.20742069881392794
-47.307080271240096,104.34052871670521,0.16241488730515402
-13.859094144435371,51.05858862228578,0.24790414644406342
-26.83044793850916,185.80776696103257,0.10162770362736648
-24.561824878563506,7.036181850053376,0.2902270806269951
-7.059612811238717,-79.75217816949316,0.14592115164571828
-20.04617302990745,41.09141288020429,0.16471285696995014
-9.966109728543515,-66.47309981121,0.20752549222252473
-3.014300061438761,-152.85086261237498,0.2322131774405245
-2.520185862326996,-98.05147639192495,0.219912320754795
-18.926539964587985,85.88069237982943,0.2921909551304017
-25.29026303587212,57.51583020221999,0.07642951790353436
9.882441598415767,116.15511659493185,0.07614975458966729
18.986242906188906,128.94003216987565,0.14077857014695172
-18.292293743875135,0.664009856310902,0.2475554484812622
-23.376384925040593,-60.208389773288914,0.2997560263989185
32.95006272174783,30.982049613893093,0.23969068895475126
40.03091640221995,-214.9760561372613,0.17942118744807828
-15.40854213338405,-7.641229106340641,0.17962052359719455
-2.1085264641975594,77.39729610610092,0.20084718377535773
14.453382859035806,25.13389133185267,0.1323154036960814
-14.159651840903468,-191.6945774873938,0.16728443166793866
11.969080489965105,-52.94358571963576,0.17896054324136484
6.874305508283935,30.798989963825473,0.237677517424711
-10.38787833839828,95.9251697395059,0.22264861727261623
10.390557274414885,-41.80557384819104,0.26627643059940065
-18.717479453871345,103.56209143010659,0.18679308989843557
-8.637385705468951,13.023252999348541,0.26964364063394736
-7.112371249048907,-15.39163929450019,0.2613721793574886
6.484766811242766,-120.29439136373819,0.1556379701211636
-16.170607256913815,0.9590267927829851,0.19494286114109197
-23.749605468545262,65.97794982802588,0.2159128440970367
18.07660897719899,-55.417414615058746,0.16753359854546832
45.10613734153726,182.77500283778934,0.1975130773711559
24.301719014744076,208.63626751243297,0.1817070378015552
6.96699373773236,-100.14170549577592,0.10230708019214237
3.497802332465785,-108.9328004490178,0.18780441650124607
4.844415864773351,114.35911883802487,0.21150043450238712
37.01706128882169,118.4541973781339,0.1858302911762151
7.726691136981485,43.640514783938116,0.13556016126826353
-17.70370510179458,-126.78035745555465,0.1945772650199486
9.741391771805336,47.335185618520455,0.2664096755956974
10.270027470724997,-28.508863262732465,0.1590063886562303
-14.463767738349883,-27.74468112143949,0.16912331475049186
-5.751445642334662,49.306025561513,0.19749903911231423
-30.432226802090785,-92.51597103373578,0.21964608329129762
18.64473045279247,34.605796148123865,0.1923560014696377
61.65524446947225,-97.90890279585616,0.22532920562858602
-3.1095175642188764,119.48636324497474,0.1608354291966967
-28.06391999109183,-67.91792661000807,0.12122064275602873
1.025403574769421,60.48568858341405,0.18130614214347077
33.354111059417264,10.19390790601441,0.28042313264951824
-4.71876844889287,67.64205621340233,0.1750529301999792
-9.727570457342624,-66.45821665883071,0.17410173653976788
3.2598042076546516,250.49332110162666,0.20369960772789023
-16.597276770171717,-85.37107676254068,0.28037793311945014
8.05405654094782,-47.29602725719671,0.21672331330994027
50.8709742463265,-4.567412772002786,0.24872981881914688
-10.500108165591977,55.909984889340535,0.22416407541982697
-15.962066892794107,-93.34341024098438,0.15558574129445685
-1.4830960642480975,-135.71743711684897,0.24713304513923523
-12.145407035528264,76.62037362169794,0.13509032863115839
-8.987924416776242,2.6489019917936183,0.18592903200815858
-6.554667966085647,-3.2303374210811238,0.17796613872580092
8.029067249281987,-25.164488516143603,0.23186700490911313
-10.156356872205773,-189.70714817496784,0.1980049328651238
-33.48538459918747,-0.1991523489995501,0.21971577173372167
18.330029692346525,99.0675416047199,0.13492907287785164
6.70736615123694,0.3457183210579,0.22811494415105504
-42.64128883005788,132.1633017849081,0.2550897064033023
-22.20856701050273,86.9715137142337,0.1594965855178848
-3.2271358453432084,-29.322616503379795,0.21684199679415955
23.851314911245986,-22.8354521819838,0.26592651055984995
-24.37589573956854,-35.26862683197308,0.23069827928753453
-25.909441486847303,-86.6745107898761,0.19632114000951503
-7.404098554202844,-91.8550954583225,0.2491040641725076
-30.286081081031814,148.05710620069144,0.10761676639804997
-0.19197007644992853,82.3533082442044,0.28062462011155664
-24.838612716346965,-141.84577952818307,0.2260717010311042
6.479703998075054,-97.16730483411536,0.27558815006917603
9.317579082213367,-77.9221683893661,0.18716282783566981
-0.7904489316376087,168.19078300274217,0.14030699373344432
-3.046566395426586,3.925379242966727,0.19497220411778782
18.719562871510732,52.69568936948977,0.08175568528641725
46.122074838339266,130.33381549468191,0.18284877128248023
-1.242036676507021,-60.42469656812051,0.25690419988429036
13.48249223805196,-324.0057153875407,0.2807850197278132
20.99648139307073,-36.8288322758218,0.19466627246371118
-12.230521123389194,-103.03647053777978,0.23711050058039368
22.828704470734174,-55.11486069459694,0.1849922746746533
-20.69736413364916,-1.7382088950736052,0.1871479488193355
-17.366514709437798,35.28757106132222,0.2299330567492113
45.73571766827673,28.806132180487065,0.31894300250489416
-14.163938543956904,18.807372266220924,0.1554854617174097
-2.793406371597151,168.75544535628265,0.2329036505845427
-11.384378202545506,-74.25220525519978,0.25999698369289004
18.577652679511154,189.26594138244644,0.2191034980168758
18.064367776016507,56.688492856842764,0.22021607475355004
-0.43732457092625165,5.167161960298126,0.15499670524179426
-10.667768826753171,235.6475676648239,0.10100977367187414
11.625949202975644,87.8764321986942,0.1878633196523337
-5.366127465591346,-87.81550616829547,0.2610443183938186
14.3848456406459,194.39528730030088,0.1832839798181278
27.20993696963347,111.454404883443,0.16503131841461782
-1.265105459630874,63.69614969273598,0.22482386833469553
-15.523154263216226,12.094924697466523,0.19984895275671322
8.540498799953903,-43.42282579327409,0.15034685539625578
10.346556100149773,-226.5635601749878,0.18510450531521516
-8.026930600094738,-13.705844708920415,0.17911466720138497
-4.115576405638166,56.952816776210135,0.3674736712223058
-20.462797904303724,26.654506099637302,0.15964009013767091
4.092874159288039,90.77756204626569,0.22208164807983466
2.852682102181891,181.10386873095177,0.18777657197343062
-3.6416322745424647,-32.71475637232361,0.1954651788254952
3.4803831434552097,27.64938284978139,0.0870192997172391
8.363614772211116,52.871611354570724,0.16430635944064803
21.357694639630772,-80.02939425619418,0.19175388136987295
-0.6567470923781376,128.95977200272276,0.18915317792638375
-2.4717497361633174,-20.225820237841162,0.18931997512226256
-4.843684572605685,32.61844719354178,0.2013309067635008
-19.18529291548069,-55.006793073954285,0.18082067752421854
12.162197282134743,61.48235410406385,0.14090872721500658
-26.15242689513282,-190.36294842288203,0.30683785614407183
23.189330372884598,144.8955054799705,0.20668586226612504
-7.4064647971117195,-6.367950144713669,0.21939894939114452
-15.889458571218151,81.61370876277344,0.13219490100072134
-7.4395421345898285,5.758243769508292,0.24795363857985073
11.432200777031893,-60.25123927822861,0.33993136085680076
19.117479681331083,-167.21743840959198,0.21376554523735922
13.036419794064924,-25.863717320147895,0.22548492438910564
25.298422369124655,-21.09912403219123,0.24861001783932737
4.74017963224579,100.6857046163717,0.21473340894082146
1.3618483087348383,45.702104453724054,0.19400334995648025
13.665121283062776,62.92644956134339,0.2243048381986366
11.171405800344246,-121.09660773894278,0.21647698108888822
24.67627244433389,-12.6408393375965,0.21620582105069075
-12.743757643160112,39.42542161035244,0.25845603740048095
20.61473517536262,-18.04416679848622,0.1744385727202032
-41.75460532516741,-81.59597162330392,0.22516285402973057
-27.370887771140655,-34.468926298242906,0.1906762636458178
17.50113345631469,14.637640362590101,0.1885269319381909
4.574520313436418,-48.810338572561506,0.1807807661130827
13.038742010971603,-38.35534381428546,0.14420080288410062
-34.088509190769955,192.91802471782287,0.08642666566763371
7.954070815146217,-174.86611653112067,0.1791547694475118
34.4399964990643,109.54334653820139,0.15969310487468766
-6.286436229543938,7.879805771829634,0.2107398184376801
31.22423715502292,-53.0993736825789,0.26978283038939754
-26.00848051614562,122.07822955277597,0.19077833701411737
-13.240581997034802,76.84465239050259,0.17875668081242016
-17.95038467604979,-49.26492827917735,0.21842011418138801
4.526647316971738,-50.85390711744535,0.16986605889174222
7.339100497897978,-53.56855301072462,0.16139604401006344
-15.615568550293084,-122.73351499663374,0.27251854646043916
-0.8995689553684404,-11.901906390556231,0.22222675043727802
-11.37573830106022,-56.63829039249574,0.26692358449704645
-0.517093930812006,-80.08648439865664,0.20147234229121663
5.502164723945936,-3.5496557561379665,0.207528429196907
10.859746489006062,86.3604268613601,0.19627989875072974
29.124324847004893,-66.2909063377041,0.2272140613318018
8.667363147153873,314.8310950362642,0.24880830666114842
3.7324707608241274,168.0107089721953,0.2202385532998612
25.25853068166112,165.9531359665644,0.24091082984155826
-0.4745666246412433,-15.943894104609058,0.26370312256125317
-34.3600068468518,-88.87929064757729,0.1795060752344542
-18.371796427921105,28.88042079280701,0.22860268117486554
5.626438054447869,167.70950211562044,0.11901336740968181
42.475955051393335,-106.11832431264692,0.14210784924129047
-18.251073564591497,-25.812768012271963,0.30389584927248003
32.51435999345787,-88.04564630571079,0.16738411696088523
-12.569542277363215,-196.61107171876876,0.17465646196787896
8.552550924679315,-33.68292077059069,0.25145688727553744
21.31405207084633,-69.00987454819911,0.16220615443791178
12.578833700617677,27.750849430719214,0.20813682496547978
8.647839691839575,148.17078325791525,0.1348118902347728
10.696679842434747,-37.72766790823551,0.19868894253924235
-29.268853464623973,-129.9705884181958,0.19668115270697806
-27.04711510246728,122.50491888436643,0.22356959802630136
35.09583701229482,31.031283641975076,0.15148581046034953
-24.212445385251424,82.7713942627832,0.22301506724444575
6.3932434587730915,-6.372627019098336,0.25992000434666523
-25.963234192193237,-40.961945881279775,0.15647152469177406
13.144776175353863,9.898781765008426,0.24862993973469444
24.913917145676933,72.28576556916471,0.22199926285955138
4.027685658293697,214.0880721604522,0.15549003585013574
-7.189361017805896,-178.48848910848398,0.13011819042279865
-14.714949169704013,79.58632566683231,0.14166755781905008
18.699556859825567,15.403431036222498,0.2519259697159592
-31.299692724494438,63.08854578834112,0.2672163770082224
-34.74583393723065,-137.73915341363,0.1946847069461556
-16.610283658535852,-34.47062631320943,0.2650034902619105
-46.45019537120862,-20.794967300507196,0.24184092704696175
-7.573030634829445,65.2086378389979,0.13097813287944093
18.843031935618352,41.211177728637225,0.1801647806193687
-10.872121524784507,302.12720292513444,0.20439392908474485
41.64450364478411,233.3089560403693,0.18596958892891116
42.222113377418694,170.3789534383305,0.20111540013771032
-35.34602274338935,32.81054488064106,0.2433861114621089
27.425089297666414,-12.688457556585803,0.18712867090826446
6.264521132655371,45.50685166123904,0.21204092077417888
17.740806003450395,-21.397004205666306,0.31857016713181735
10.887659493939804,-86.98671662610695,0.18695834998524435
-12.747744404393215,80.56213861449272,0.2280341590982602
7.89596494169621,-155.51395682038185,0.26788261003155045
-11.089533957780496,177.49995539712336,0.1711382404710402
-1.8086755975091262,-166.99444557032592,0.13870679511578043
5.932892343693221,68.88562502052513,0.1817754403687098
-13.822255031774375,112.00698415488435,0.22556822548846708
16.80280244270208,77.89487741966038,0.13296567186136893
30.00110856750105,-101.76324824254851,0.19575985952627442
13.0455550304952,-8.81711017927104,0.09454158649226117
-7.170829136979913,-45.61410059753178,0.23448645405563032
15.155962041578936,67.8555644888805,0.1648818775658258
-25.243226253176893,-140.55201063109408,0.18876864369127774
-2.3510685767335096,92.72805370266087,0.1784140312973571
8.565345005608807,136.98816062542562,0.09411964278322293
-10.014375422042662,-93.23367822264568,0.1229363709729834
-8.838466686689635,-55.26535955858428,0.12273624921209314
-19.050325454288423,74.84419119311046,0.13477353255614283
-20.676961265391952,144.52457748207786,0.2278377658458344
6.12755731046187,-74.24497986512195,0.1146914183226691
26.944617048000485,88.10531486075077,0.17891124769573358
-6.806737992309459,130.65807776821265,0.24922411154117746
8.144469936186622,116.29996796291276,0.19113777838528895
3.5077865312797023,52.58783285771133,0.16781344111004204
27.15111919217059,-65.2396353492565,0.1441642224060452
3.352619745793625,90.03107546168847,0.27920808208837544
-36.62551954830493,35.908462706184736,0.2953350098092524
34.232630634009695,-130.06140530112907,0.12280756663998164
-38.61949435264119,-43.16425742757987,0.24428964284696447
-11.897122729813654,64.38071674868405,0.21812329435476624
3.3646599831212294,-90.52051757192693,0.26416183500572554
-6.193160850785361,89.90304675366623,0.17442664406875283
-30.209135753697545,-32.94380890105391,0.23354631043281196
-6.304617504629638,-5.5130826709043514,0.19690253245980371
-14.304607957182146,-170.05306846132498,0.2086563778685722
7.226453472329373,-53.870891962315746,0.20410358070501242
-5.180531485545364,108.96724699683054,0.12374487984543064
4.3578586776027075,-14.088036224134825,0.22790046190377694
-3.466835655337614,-95.85766844397509,0.2070997481369541
8.187276222037335,-125.25629597880798,0.101336200775721
-11.212355868616628,-58.22719766478674,0.21548530018578935
1.6614442414824868,84.86758457550532,0.2239323544023895
4.338660798847519,102.10050566687453,0.2367420913477095
-11.022815989280105,46.94216784986833,0.14667182641903295
24.281254181289565,-32.6537540264751,0.1841870544638631
4.797629236455271,134.06161186134565,0.20593893193915713
18.566262154089774,-272.9544036896705,0.3286350500544866
-12.775505310719188,-89.40318477707258,0.16694958280522257
-16.23160313200931,14.782111897674694,0.14705549779325677
14.462532253981141,155.4419971217331,0.1935427826075249
7.132514956371116,-116.189943764034,0.2889996533464052
-21.512656545524557,171.58342776616112,0.18347011498179397
-23.337884856585617,-149.08097572961745,0.19277884469312473
-7.51594420655854,132.30668903613116,0.17664514939450035
-12.963504906506607,124.3388212523745,0.24705881721983616
-17.95956014405101,-10.150527456234764,0.13911887134406103
16.452153311545267,-46.17823674016161,0.19202194973736122
9.046251998752643,89.0638975260356,0.15464957566414628
33.48902923656839,250.42901942101417,0.17349442445085508
29.703019686482683,-37.55438622244415,0.1884610967623813
16.319388486263293,85.10891350141486,0.2341311551617456
23.843714740169798,-42.09644499015001,0.15367549235492503
-0.577298287006724,-35.18935721569923,0.22919131485839578
-16.079454627265232,86.73891921617502,0.22659391641360407
-21.74741178410415,60.17501553889806,0.17706661006484703
7.795789588603391,21.244096479282764,0.1293481777556854
-2.5213251150564195,56.39287860575251,0.21374985020565646
-24.222385729251556,99.76398121992327,0.12466376744604839
-13.045219929478593,-56.96294562137423,0.1890793283107231
-2.41035068631976,-44.87885370933219,0.19524441820675648
20.66590894584364,100.071439629164,0.18716178874962447
49.605085954928406,216.0471312155145,0.19483849762869376
8.408438788676708,178.886442411169,0.25378341763398726
-13.603815952204663,-12.193778458373963,0.22743380809095878
-3.2952981997280704,-27.025250360319102,0.288789740670951
22.707739706255147,-83.75383702425218,0.08064688292605096
18.656402214123407,-26.287000604474862,0.1989398315551288
0.7123191476929696,-30.358003683966118,0.17692146143555096
-25.97274608212562,34.40581085671038,0.19858062551876027
-37.23113961917748,21.162797838734726,0.2359853984950892
3.629295550333355,148.5727685970916,0.2047934967880048
16.856273728583403,-182.49799303017383,0.16861729510306883
18.07533355127269,90.62512939636485,0.18883578306908397
22.83142215554378,-42.13756043124582,0.18594319672015255
-27.480759947341326,-39.93457738170708,0.21759275208298554
7.35735432412368,78.02306972302416,0.1554433581767425
-8.319127685057028,-84.81110226517507,0.21415175814927861
31.029266209694974,104.80511331111192,0.2512193707728744
54.14557376059197,89.74829189794372,0.20404332367188235
-0.9760040028994904,-117.30250460519278,0.15884377333671515
-18.10776895680214,21.088933694384394,0.20881163512608192
-15.89019381912511,-96.89450421991103,0.1605286032489282
-0.690102065839995,196.96548962183192,0.2566884946294886
-46.84771468039652,49.96045341208384,0.27636192236319734
10.148722205097211,17.50960700433578,0.24091732828668005
-3.7118111332722763,-124.7988213804736,0.29706348734643157
-13.156319644000092,-29.458141820459588,0.1947293177343689
-12.29360165791225,90.13709219915613,0.21404271678903378
-5.268280781703317,290.0020441897634,0.27240928322031355
-23.12245657726367,-83.48800586895108,0.20095394486505405
7.063822009342015,124.79253659512233,0.2497963830058189
-2.839092258481108,-22.203464749256717,0.22980664950398022
8.777787107343451,118.4931328128485,0.1776766964589917
-7.9879776798984805,33.3600170820913,0.2486341613621371
-29.641858683539372,38.87187484486172,0.15353909382580308
22.121867878388084,107.46341450972008,0.27924704139996165
-24.317696307403438,86.2747563351682,0.24608169675634334
1.4632362521428175,-16.239117441535136,0.19959952922719304
-8.84158641585788,93.97110025891521,0.2308580855853236
-10.567566916339,-29.524686307139586,0.22107248255354142
25.330960812756437,79.56571517589659,0.21190808119378013
-20.830095024927594,112.89532175735621,0.21059059020041215
23.900847680813456,190.47256063529167,0.16016008948227545
-36.10237780452188,92.01086158810487,0.21664904450580982
-39.44622466210077,-3.9327650497295705,0.09208943174751956
-4.183053771907995,-182.988745592187,0.24009548221124802
2.3834177749947942,45.28329463044163,0.13016462374261595
-8.575754871932341,0.8383853488533842,0.17065176575534705
-47.380411365981956,-67.35981019410065,0.27216899310097503
2.7657635344061458,7.420450822726943,0.14885531831124135
20.7732485606327,-109.87685334354175,0.29262037954630543
14.99784866217343,-123.89967568959214,0.20306779153400953
14.089539219848039,195.22753656040408,0.24459608219466458
-11.924707684021625,-238.31150306385274,0.09877372600130324
-23.139862513768943,38.08586001027809,0.25640983817399465
18.703162697261572,49.62123239458988,0.20203871253270014
33.72432805528394,-103.63246548176188,0.1998116284147584
19.01432152052442,38.29830804193852,0.20926846402545932
-23.987050619423034,29.410342833784437,0.2244533093087242
-4.757813015735659,91.53012381805166,0.1695440162620668
27.328128941739532,225.3778032179868,0.3202700168573536
33.898738893124566,37.66440149164874,0.1711859368838673
8.353865854315584,20.580473113745377,0.2500176479730666
-16.27627407839362,-54.96067036343314,0.17843253405326104
-35.80998062155013,-40.22675720365335,0.22184218711506953
-5.394925465595904,57.178627658324274,0.20992564808534228
2.9978333404780653,-160.5203093455735,0.18814944703012063
10.719370570470117,9.471010003136767,0.12966759598549288
9.870083775913237,126.44822031330082,0.2854819144953073
2.548715293682873,16.089276308727857,0.2113888297672345
-17.71099790855543,-43.99522744333898,0.1693443854779486
49.229496889080025,-100.87729732864699,0.21607556823228458
30.430835656947337,-25.636216578078148,0.07896820784565979
0.7120377960393947,172.09143888469578,0.19513070518837305
-11.261670163195717,113.43955265094712,0.17394786655888894
3.752068973051475,-213.3770355041557,0.1784246990472301
0.4512513230697608,-213.36675297545293,0.2567091953953111
30.614245223568307,246.21992221721527,0.22377340376958108
14.017902550977407,-31.806454111234174,0.19806227561002085
-8.547118105354453,41.106987378939195,0.16812031406608816
-25.394930145956252,56.550930357230264,0.2063025550708204
16.763066917755452,43.79114474480886,0.16848675153949602
-12.314497220706302,-161.102897003975,0.18140148814845175
0.6062907789657964,-68.76910515564188,0.16429189786829446
16.748029187832966,73.50128892398384,0.262508348741717
10.399349128350163,8.243807369142662,0.19145493024184052
19.16033488771592,-9.25379020427455,0.20806569695341537
-20.854734171823594,-27.043247435790363,0.23277087560346993
-3.618436498877542,-34.602853547756915,0.25576908646940766
-22.28382723092131,-128.72659020518486,0.11218213089887273
4.1724846420762605,53.123546758959876,0.14489933546514314
3.9824507091511023,100.35699026292333,0.18069474211903436
7.94812364665002,48.41649189461622,0.22800934834666428
24.283218142384374,-73.59740985826416,0.14694332179055472
23.09470146456816,-23.974565982054223,0.19974764874257575
-21.42318745262275,1.1085356413886107,0.29099435925079375
20.831482309093605,-10.756710632362825,0.15073364602856032
-10.810835124712401,113.69117664429771,0.20155097623801688
-0.5883835787518037,-35.31580963857226,0.2449497418172389
8.36158211565097,65.88938250053651,0.20170183242879516
-15.429751674032605,-78.20998696228763,0.26030992814694276
37.86487302593532,37.492608152324486,0.13781604125710578
9.328528649526195,50.93790788849415,0.20976271534174457
32.26518509769886,-41.268299966949925,0.12859764832276893
5.267999334019859,131.57891988031741,0.2606061266258901
0.7650187910648316,116.56150254720711,0.16857365131550672
24.364040872700667,-18.539548847126557,0.19702035210137098
6.17997747610166,-16.97049423247432,0.13762868801236
-11.27018584319536,-32.245636307380074,0.23133246010192707
47.819465878192624,198.13755960398305,0.15840872317507643
-23.423620431677634,106.66478988907862,0.18711871723115486
-1.8640356772877897,33.02940362746754,0.2135079754321576
29.964052133117885,-184.20815584320226,0.22563484743115722
-41.19181233413979,-43.384965827540256,0.2024198675526743
0.4143992047967564,-48.61426231162485,0.14827917232034726
-33.796280144956,146.05299830982412,0.19135008856320618
6.293123041687912,-9.186595355397174,0.09226193158317271
-13.412914985096219,-200.14026651454947,0.21635903499424802
-0.5305440346794464,-22.938152153015366,0.1969820180448904
-11.065910535844477,-94.25631096506277,0.14217175758793152
35.55178329617061,-57.938911251241855,0.12715254267783704
-27.381861225641234,39.785725258493294,0.16035796214389592
16.628698254912276,33.12292222993584,0.23918144880347303
4.340879654496551,86.19815132724207,0.1896402370877437
-11.55825139289911,107.87861333271111,0.20839416589743684
13.870333760451377,-132.05674852181,0.23542510006820333
-5.408396635355535,33.333348567069756,0.1287230060855759
-7.313996628911176,25.93445779224744,0.17699867855508325
-26.984634563521684,-70.85590063541974,0.2236421781272862
10.265918362333423,-182.20888063754393,0.16888599920223685
20.112512011266496,36.40031220084477,0.17821241405928875
-15.978828275347936,-178.2771303415263,0.19977940521248114
-11.656451376508638,86.11679219361078,0.1650256634981259
39.702512261490575,-129.8024549102361,0.20181478620707055
-26.804331782971673,-40.806926724043194,0.1509510635926061
6.898791301280158,256.36664943352434,0.1717059831756259
15.035563518222855,163.72503686364354,0.24152823163855658
3.2529941611835618,-11.227373696087502,0.21763721458167581
-9.9554234408533,-0.18327734853772615,0.20951997806950254
-24.71620084626199,-43.129643526775354,0.22096538145341632
-26.564820384303275,33.018688407128536,0.24379075190533442
-26.47945516305795,80.30998648789213,0.19379260398336473
-41.86403234342694,27.349434885939306,0.22796413572044033
41.1505471772216,93.08310994487444,0.2688434480505398
9.318291833679291,-77.81769041180885,0.15280668926842572
45.23563345509756,7.888062966601593,0.10454975967659962
18.009073421581913,-102.18854854274522,0.202589529110866
16.952386914963967,107.02110332163772,0.15867682790976737
9.21639376181923,95.45786263638193,0.13818573870384368
-35.87753265686865,-61.58818313292983,0.1686513878504224
16.32274581137654,-26.18272831136555,0.18900048561631155
-23.78146975012383,-6.906281812189076,0.27754776570283596
9.270529583527722,79.40811320876323,0.2535440220975749
-5.9851820980137616,54.85893494404706,0.11839613261749332
32.00315280287076,-15.806909357769818,0.22657283445618784
-37.96314939840744,16.149579259540538,0.27729828105163024
36.671356471318184,-41.95708469172174,0.1903052811900553
8.456861773405,-48.48284732785776,0.17938079512110588
-39.84911846227447,-66.18691282524097,0.2753045429802974
-26.91369515711785,-115.83251875513638,0.12237637970469455
1.3853258426291484,183.29335143873797,0.18151103110844574
-30.66843626858286,-186.89522993335615,0.17868614311921163
-2.8287178188,-30.89633368962493,0.1197461517774394
-2.19874978705003,19.086059184965873,0.19719329054892357
0.7861813992686711,79.40273783619344,0.13704680992493828
-39.148827279357484,-24.725208896923927,0.1913877864242438
14.911926382976155,-156.21550875797737,0.21792883285038092
-23.34240378763463,144.7706668352047,0.23841528785365043
32.05009593745163,-57.56756085589074,0.11168735235774893
-13.767809026727733,28.17524350854076,0.17915282131645824
-20.450464786905286,-5.655154688417791,0.1463721882267874
0.8108770574805619,94.29678964695253,0.2331055722285082
-17.54409092915308,44.79501446537554,0.17415045051360356
-20.42699198239,-108.0054611118864,0.296089106185581
-5.152194378256565,-164.04902730544458,0.17418892035243483
24.37435518313262,-210.94944137856197,0.23148491928805753
-44.068418523673074,193.48868355063289,0.16911349479583015
-17.318111759717368,-65.70814337734913,0.22098829890639343
4.328214664728596,-9.49445930527425,0.1372959175679799
33.78366289846578,-64.22192586320197,0.13479871712911543
18.337136824261492,-42.67290913134797,0.19959894210627008
-37.82431007326145,215.71470437254322,0.22053219518001638
-16.605493118890827,48.4457154570707,0.14125013757360788
-21.450842105115292,75.58068548758038,0.263094583416832
10.674207393503206,46.97584695629619,0.19045161876814007
-0.7049641134937702,53.56149194131663,0.2629163982860799
18.11941068718318,102.00143697732233,0.10820684324567165
11.193533336804379,166.10885039009858,0.20651904617836134
12.898443394583811,83.36595274828265,0.2186310632987905
10.715519883764227,-132.31978694276896,0.227005567058378
2.3193894838512836,-181.60840460718558,0.16681527863220746
23.71223533256154,-72.75899626326195,0.21014790724460525
-36.56764114041505,13.821922379818579,0.14676739506449069
-22.932273721980586,3.7863823831195798,0.11897556979113653
3.2614345083895357,146.4503242490987,0.2150057192555242
-19.721520685870523,33.25576118402128,0.18460798728431618
28.581607967072856,-120.63219620563066,0.23790703650798267
-6.76180647501687,168.11079115052928,0.12294139876293028
24.74159603035293,10.89033163515431,0.18334209254412648
2.5112928698767623,-100.54270202378089,0.15563575778352487
-10.287530248467572,28.615019207833964,0.23205109394131038
3.35278065448966,128.82460840048302,0.2929339060267172
-37.79811609528857,24.919116835115148,0.2266144037916512
51.869280543930884,-92.37511528316509,0.22775648321107236
-29.132181455885732,11.35755411696825,0.2269543888537613
-41.906851194959486,88.27026053837854,0.14861026794195714
11.259338165994638,94.7423615301882,0.30258981959832276
-38.92169255055155,128.60361387778374,0.218243970928077
6.958396133087951,-32.74482262245382,0.18777797133751473
-18.551721532610713,0.38295499106321296,0.17098448538963967
-23.522131292360868,-84.50257250430346,0.1710520270154777
-15.282015826781091,161.90300563185468,0.10717976337682021
-10.988783353576002,-36.15713067080236,0.1313946263792511
21.48497724324113,51.49279482619018,0.16329888300661494
-17.162852460450825,30.192067964301316,0.14866430032429961
-5.089494619652628,200.43188983751637,0.16701102094092
-5.109740040821765,121.09458664498422,0.28109797442105056
0.3027852265182504,207.00696587939564,0.13077558870739972
-11.310411190081277,-89.30233151480867,0.24862286222075497
-2.899120914612094,41.2113526349848,0.09662567715126871
-19.45414176353489,-98.364021335075,0.12296485624079745
14.432912800929628,36.25419792617108,0.1727393692660972
33.1567511579317,-127.94472798287488,0.15109120008677854
-5.745020421969542,23.065494845903878,0.18776748104215712
-14.081918034414828,-116.88317007770563,0.1048905771838584
33.90004235800622,213.75735872174636,0.18510423323788
-4.339662121285076,57.90539250660072,0.2048248142731004
-13.26628079219283,99.6694271887683,0.21042522762192634
11.81787948812158,67.31571765029194,0.20615831608055646
11.043133646511924,142.20460131360068,0.24220014861589678
-18.16239242847339,-162.93375074304237,0.09572741458482426
-7.091231617313028,-23.05202299594586,0.23449157922566555
-8.193414422131386,242.29278826843154,0.11082896585347919
-4.62500382219745,-45.6266406276294,0.2421057418503863
5.447583710861343,-31.016952862400576,0.24151184929277514
5.938540338150532,-266.06680272056724,0.16461618895467073
-14.31276068222722,68.9673299885975,0.16228660934113648
-12.39180034307568,4.8029813070519864,0.2382415691584613
52.93484452409581,131.77520421030425,0.29222969514628566
4.3468633065013265,60.957722467656595,0.1757076986972568
22.822371365604003,-54.37650758227157,0.21867848142329255
3.2277260214812244,-1.7094088483909313,0.267258726753674
-3.6880048280056403,47.48236304942918,0.1959921966159589
10.72049353339269,-86.55037070931392,0.24821734709439913
2.306278965434221,-44.63052430092922,0.2299514436247574
0.7290539947222421,103.9419495606711,0.1753332967531232
1.6407625150651892,36.91385090824591,0.26396120551309826
-6.563640241003275,-32.347722994918556,0.18830873641947
0.5795519672406084,-47.80064515344854,0.16906273032692998
0.40846237692679305,-4.288213908352355,0.2645592211679328
31.572354298011355,43.714511101250366,0.24216245913911658
-11.015903749991258,157.53698928427968,0.14727236795809256
17.779448643015677,-8.101997818592842,0.16297335424675974
-7.90071384834356,60.83512599417792,0.16544933567518877
2.2879900082645714,26.067601907990223,0.2434817106194201
4.89263469064351,70.55011775855465,0.22882684856569144
-40.979918779145464,-34.25976249905829,0.12471157948238987
-16.979579721834064,256.61495842068274,0.17054722305203557
-15.367372183528687,-128.35793842640328,0.10748378705281836
26.7365910513482,170.05264982770186,0.16526927836910735
-32.14880899103173,148.48081946487113,0.23449880840668874
-0.4852353898512632,200.64709204253683,0.19393785593669086
-20.08179420441302,194.81101347464346,0.13888666693222573
4.069837172134533,215.75614152293502,0.16554572588753783
-0.04261938822918565,143.6670922469652,0.21629722543346713
-1.6636524325541582,136.12663858517823,0.184366135196311
13.327738317570127,86.3334151894035,0.339200267709997
-43.17497749650887,38.67194879035229,0.21488861493210654
10.64787206146979,-46.06862854289378,0.1934045896854677
-6.113292275480759,82.45934957033252,0.1567063004468602
-13.752690982231659,-41.414635441132425,0.22371832228912103
-4.104749576610379,58.34154307316266,0.16752972981233263
-12.75963503739922,205.6714731859355,0.16748010759571838
14.85613699847901,225.5838022338979,0.17812659737535583
26.837388727301512,32.53857041127114,0.2576920948513759
4.851414340365244,7.2200700289027555,0.20945497608798547
27.943232362178065,-39.69677154201271,0.17055533313299545
-44.845637722794066,-59.02399368594755,0.19449448209194553
31.32074516787371,57.4769618201345,0.14173342122231605
-21.47571774045193,-43.64923368418728,0.15092112854221604
4.302022841383079,-74.95286873838782,0.13913754731614242
-12.17986764615116,26.14683923036838,0.25312128373972165
-12.600724148025161,208.50116972504776,0.21824606637238714
19.559701987490755,-104.66169103537976,0.1917240230007644
2.00539402003554,10.063147624916496,0.24285084841543625
-5.472029699435325,-128.0592582673426,0.21478912384885893
-1.9285781570776934,122.37086674368807,0.15023174952154977
-21.633496696523498,-146.90615068466727,0.16882023183342548
12.346218019701583,-56.298622680515344,0.1326135115593139
28.108731079662583,-215.8876834265425,0.20944206842399657
-26.42369487898015,-222.99163702071274,0.14985042104652777
9.88115160909017,145.62342478128065,0.13256284779155647
-5.867495929647895,-75.19258368435612,0.15617338664989508
-3.735212586672603,-86.83800005974872,0.19883964050680877
-14.807655592490717,-173.89339630691464,0.1320962921372024
-15.242718687262881,-47.080263305716926,0.1848184334091453
-5.946800973601492,22.48359108452015,0.1829698070278295
-14.981488758751949,-46.36231096340063,0.19043521181266748
24.79251240035438,79.00600971438666,0.21704132679528415
-1.570284334333033,-6.984351124485433,0.14807178562066187
3.032944577503946,15.948044931067928,0.2426638488355494
4.6615412608037,53.38890053620029,0.16806700650657597
-1.854813231721277,-4.769549264792125,0.18328739259627078
18.60976771326237,141.26517176309704,0.17009805391754662
18.766084136468567,-47.39702187746132,0.23621298859628656
18.06581095471345,8.495158587215098,0.15257429741291054
11.765268331714427,47.648143941150366,0.20333970662644754
-28.053928120923107,-6.9622765350583995,0.0458911105049751
55.13109764377455,-90.38274483423537,0.3095478274207558
26.443240476389505,42.42758657648098,0.2237141469056287
-16.070656940292707,113.2649362002561,0.16175606940456674
-8.669714675906167,-63.06289897721052,0.20610138412917017
9.827958493181505,-92.03686862328888,0.19462721932117014
-15.853113249874786,65.8267510173095,0.25947123746361306
-11.325315357875866,-32.844301225454664,0.1364122811830298
21.0498522405285,-54.253833859568125,0.2546552065824705
15.195954505700504,41.19810760584638,0.240074721433382
-3.343489520137735,41.17029904644136,0.1827090848735678
30.614624994765688,49.38073507071344,0.18832563268699426
3.5738512502680546,132.93200575416532,0.15013139453101662
31.901289365697426,-63.56001124897801,0.21696581929463726
-3.0367203653129997,-72.67401792268761,0.20622496179061117
7.867181803809277,28.01896107902718,0.19350830588059809
-5.642411645057944,11.570368081896085,0.16319484792945244
-9.189493454328781,-87.97053108095425,0.14197130615559317
-5.241534933423212,61.53746841388921,0.28191033148913863
25.722834367727977,-15.701858201260935,0.28137630308297273
-0.4035803209909966,-48.29913666032433,0.21705245638641285
0.30129053654986515,-37.81295802816804,0.18671429391792904
14.742533432205871,205.81921003532838,0.19671316052165344
16.45305500527583,61.757218952779965,0.1631953498572592
-11.571201979572503,-64.46098457932527,0.23801877810346886
-48.20856444779623,-7.651178144164543,0.24969537816378512
-1.202142924615204,118.98405580583658,0.2434756191053476
13.923419640019477,27.71159179458722,0.07474948196409095
11.533068379058392,-94.55617864018066,0.22777309158919873
-10.067671562371252,104.98029045727186,0.15939736861868395
-25.7552762759645,-2.8152480009682583,0.2434428500171763
-38.93003287131354,-7.31890103679167,0.23397348816599256
18.524673811243375,-108.69453401218492,0.189910960632871
-20.454471353215915,-134.72475742470746,0.2845856223562033
-12.173679726626542,-21.581072235932456,0.2341423017289209
30.756251927902568,59.57478495912232,0.21580979902658415
37.679283322596326,-33.49416718949554,0.05585068652403449
-4.593358390109699,100.41404215136502,0.18554194525629056
-16.748402751974435,-14.741828442910176,0.21837314749335118
13.06832884233951,110.10975811849417,0.1438295600862334
7.762057473516656,32.62999873476824,0.23006445205410406
11.529762175306848,-143.5227055507322,0.18085848380009084
20.121408404384024,71.31292249497018,0.1603214668160162
2.5666143793868827,94.8506681739407,0.323487507353185
18.67181667287622,-47.73026572054537,0.22435647980849904
15.626598821971129,-105.49237945221277,0.11978025180275864
10.51884569138279,92.60386389190049,0.16270047659620915
25.843759656902556,78.01947868941897,0.22212940124397984
-4.475299092582981,-131.3043612667285,0.23915143238857253
-22.251000499674216,-174.1267479362017,0.25311704369219595
1.8174540716842151,153.24977061298603,0.1387729358334825
37.04421244750202,-128.15959093667465,0.12134997046216908
1.196274093005628,138.1076313008736,0.266270393093772
-19.458302054810797,104.1432082544812,0.16064505034672577
46.82933307229574,-60.355176799978715,0.19046509743842108
-7.680216517797351,42.520995628033745,0.21907390445860767
21.02836695879981,-29.72369321550993,0.3082323929341237
-8.190204176046112,175.92008684706502,0.29455050519326487
-3.9920114454052196,195.13733674272132,0.2752621888433996
-30.100177793067083,60.990080438155445,0.15631121288033076
-14.578303610462504,-9.294423911304206,0.20961527424107115
-12.087815020713059,-69.56502366354039,0.12527144912091684
-5.367160165216442,9.335729037033824,0.21837318635046032
-49.27394679363826,18.487714493239725,0.2077091213340059
18.371786704915646,6.715131961206399,0.24270419194923074
-1.2296338723045825,-89.71995096836267,0.26353157340650446
